# .PCD v0.7 - Point Cloud Data file format
VERSION 0.7
FIELDS x y z
SIZE 4 4 4
TYPE F F F
COUNT 1 1 1
WIDTH 263
HEIGHT 1
VIEWPOINT 0 0 0 1 0 0 0
POINTS 263
DATA ascii
0.53136998 -0.22842734 0.26895821
0.52440929 -0.20403565 0.26777542
0.5326221 -0.20307595 0.26919636
0.51495928 -0.19475545 0.26615664
0.52403712 -0.19629355 0.268511
0.5312323 -0.19764788 0.26933566
0.51279444 -0.18632072 0.26852047
0.51442802 -0.17521177 0.26531515
0.52099442 -0.17253101 0.26803473
0.52588737 -0.16651456 0.26457298
0.53370839 -0.16309412 0.26735896
0.54470223 -0.15385112 0.2656444
0.55416763 -0.1508669 0.26814932
0.56452143 -0.14373636 0.26633054
0.5717693 -0.14182913 0.26846948
0.56532025 -0.28400978 0.27459481
0.57480145 -0.28497067 0.27608579
0.58473724 -0.28580764 0.27544841
0.55667204 -0.27403796 0.27339807
0.56534284 -0.27471274 0.27805606
0.57510757 -0.27476341 0.27815548
0.58096862 -0.27675563 0.27955934
0.5973801 -0.27824131 0.27787536
0.5551458 -0.2652441 0.27553058
0.56650633 -0.26509649 0.2790817
0.57437968 -0.26447368 0.27710912
0.58093905 -0.26170766 0.27934885
0.61633563 -0.26673612 0.27851149
0.55433106 -0.25514707 0.27612111
0.56614864 -0.25473827 0.27886072
0.57470268 -0.2545279 0.27716929
0.58450991 -0.25356355 0.2792646
0.63663048 -0.25901601 0.2781119
0.54614162 -0.24390428 0.2717092
0.55457884 -0.24494338 0.27642944
0.56472033 -0.24545608 0.2792463
0.57420278 -0.24654548 0.27895355
0.58558041 -0.24733204 0.27963966
0.53908396 -0.2324876 0.27074522
0.54517907 -0.23467395 0.27310854
0.55464095 -0.23451494 0.27671218
0.56399381 -0.23522122 0.27900097
0.5712772 -0.23742931 0.27997246
0.52953458 -0.22172119 0.27000707
0.53614503 -0.22509842 0.27189553
0.54572707 -0.22488137 0.27424219
0.55553496 -0.22448416 0.27658844
0.56526411 -0.22381327 0.2782577
0.57467872 -0.22299089 0.27908829
0.58104885 -0.22150502 0.27896577
0.66960573 -0.22619461 0.27995095
0.52881169 -0.21420953 0.27100283
0.53562492 -0.21547571 0.27284366
0.54565376 -0.2152825 0.27443275
0.55546868 -0.21486917 0.27584836
0.56495231 -0.2144186 0.27575082
0.57469571 -0.21496265 0.27673563
0.58442241 -0.21537346 0.27851659
0.59475368 -0.21232462 0.27958298
0.52827001 -0.20818987 0.27027553
0.53672117 -0.2060111 0.27141109
0.54537433 -0.20562255 0.27443737
0.55514139 -0.20521145 0.27564862
0.56501025 -0.20451306 0.27367991
0.57507223 -0.20447153 0.27482253
0.58438939 -0.20519207 0.27814028
0.59506804 -0.20546818 0.27935272
0.60222769 -0.2037897 0.27975303
0.66870451 -0.20190719 0.27973956
0.52618068 -0.19195858 0.27091107
0.53557223 -0.19397026 0.27276543
0.54557288 -0.19511478 0.27660733
0.55489147 -0.19520454 0.2767978
0.56473362 -0.19493027 0.27294669
0.57553589 -0.19446273 0.27534238
0.5856176 -0.19467887 0.27851322
0.59500438 -0.19554867 0.27951697
0.60236579 -0.19926736 0.27955016
0.51786059 -0.18474758 0.27171791
0.52570164 -0.18532018 0.2738989
0.53572863 -0.1849872 0.27621809
0.54560339 -0.18462452 0.27804226
0.55512595 -0.18472481 0.27739421
0.56432611 -0.18528178 0.27600881
0.57393646 -0.1865145 0.27798826
0.58646029 -0.18637294 0.27954787
0.59584087 -0.18690987 0.27954251
0.6010623 -0.18681082 0.27986637
0.51841593 -0.17901802 0.27082068
0.52560431 -0.17603946 0.27284369
0.53546709 -0.17538902 0.27626711
0.5452891 -0.17502837 0.27788657
0.5547961 -0.17457312 0.27819219
0.56401896 -0.17932075 0.27935079
0.65932673 -0.17268634 0.27839455
0.53610516 -0.16718505 0.27270582
0.54496795 -0.16529083 0.27534565
0.55454701 -0.16509648 0.27761868
0.56150073 -0.16284987 0.27957565
0.65603322 -0.16431442 0.27565515
0.54681033 -0.15831797 0.27151811
0.55553633 -0.15618846 0.273983
0.56475198 -0.15424731 0.27645883
0.57261628 -0.15114102 0.27851239
0.63843822 -0.15156221 0.27880841
0.64556211 -0.15378827 0.27647531
0.56617951 -0.14764252 0.27149493
0.57512295 -0.14550428 0.27492431
0.58318609 -0.142323 0.27762339
0.63583243 -0.14479843 0.2769253
0.57908446 -0.13992754 0.27195263
0.58618128 -0.13648728 0.27373987
0.59390116 -0.13388264 0.27620131
0.60197079 -0.1318765 0.27884912
0.62979949 -0.13523127 0.27929989
0.63471746 -0.13531475 0.27503541
0.59720719 -0.12860465 0.27260652
0.60575855 -0.12673463 0.27525711
0.61458325 -0.12340721 0.27630362
0.62616873 -0.12229662 0.27924773
0.63321513 -0.1253158 0.27530062
0.61721271 -0.1180611 0.27208605
0.62552583 -0.1158741 0.2740818
0.6321854 -0.11654786 0.27291131
0.58503258 -0.28142568 0.28009129
0.56565416 -0.27057678 0.28010195
0.58603853 -0.27526733 0.28260303
0.5944469 -0.27428275 0.28378916
0.60247582 -0.2715776 0.28146556
0.55969703 -0.26114151 0.28020406
0.56295574 -0.264139 0.2805953
0.58541173 -0.26577988 0.28302154
0.59511322 -0.26528314 0.28592557
0.60509747 -0.26494572 0.28319424
0.61415654 -0.26294976 0.28137997
0.55957937 -0.25824702 0.28005841
0.56262153 -0.25593707 0.28018257
0.58784473 -0.25711748 0.28105608
0.59510082 -0.25548956 0.28184006
0.60517782 -0.2554872 0.28234488
0.61502045 -0.25486231 0.28161809
0.62465727 -0.25444049 0.28217626
0.63411856 -0.2540006 0.28413719
0.64403039 -0.25333056 0.28295287
0.57512587 -0.24184987 0.28072712
0.5847525 -0.24334426 0.28170729
0.59555733 -0.24473305 0.2817432
0.60514444 -0.24559897 0.28150827
0.6147359 -0.2451757 0.28186202
0.62459385 -0.24472956 0.28404242
0.6347034 -0.24469821 0.28666475
0.64481986 -0.24539526 0.28698972
0.65459394 -0.2445803 0.28338301
0.66122407 -0.24183665 0.28071618
0.56655747 -0.23474887 0.28048816
0.57465076 -0.2351917 0.28169692
0.58444476 -0.23494419 0.28463972
0.59494895 -0.234476 0.28516176
0.60502851 -0.23514131 0.28366333
0.61462951 -0.2355056 0.28324488
0.62470502 -0.23484176 0.28416878
0.63483316 -0.23461294 0.28607672
0.64540285 -0.23521432 0.28904781
0.65505779 -0.23542371 0.28680179
0.66386151 -0.23479037 0.28187883
0.56728435 -0.22892424 0.28026897
0.57529926 -0.22788465 0.28119287
0.58542556 -0.22540228 0.28262284
0.59523714 -0.22497505 0.2843878
0.6049487 -0.22458908 0.28356928
0.61449623 -0.22508319 0.28337193
0.62511349 -0.22556958 0.28307322
0.63535541 -0.22490625 0.28381118
0.64375335 -0.22436188 0.28823709
0.6568321 -0.22657734 0.28836098
0.66470617 -0.22542731 0.28319678
0.58887208 -0.21924931 0.28046304
0.59468502 -0.2159476 0.28106984
0.60510236 -0.21466337 0.28156239
0.61583197 -0.2149432 0.283088
0.62507808 -0.21526118 0.28241789
0.63485998 -0.21523567 0.2825135
0.64482588 -0.21475394 0.28738466
0.65474689 -0.21451662 0.28955632
0.66481066 -0.21533395 0.28549051
0.67153925 -0.21424425 0.28053921
0.60670745 -0.20533717 0.28127918
0.61560011 -0.20461906 0.28382933
0.62539715 -0.20479195 0.28426573
0.63451475 -0.20541359 0.2835789
0.64455414 -0.2052777 0.28652161
0.65312493 -0.20341939 0.28938743
0.6647526 -0.20487942 0.2850275
0.67096132 -0.20959631 0.28027552
0.58788282 -0.19035891 0.28002757
0.59941053 -0.19365022 0.28006256
0.60559827 -0.19500461 0.28116825
0.61536223 -0.19504265 0.28436315
0.62504852 -0.19464587 0.28568932
0.6346994 -0.19480249 0.28422758
0.64438117 -0.19583368 0.28649935
0.65576357 -0.19494683 0.28921255
0.66393125 -0.19483379 0.28469416
0.57565427 -0.1825086 0.28128564
0.58368188 -0.18516448 0.28108236
0.59157425 -0.18633334 0.28012055
0.60646361 -0.1869964 0.28182861
0.61506522 -0.18546587 0.28449082
0.6247831 -0.18509445 0.2861017
0.63527566 -0.1847069 0.28527215
0.64579475 -0.18506388 0.28686076
0.65533239 -0.18488398 0.28863609
0.66223305 -0.18550359 0.28390783
0.56517845 -0.17437211 0.28114727
0.57485592 -0.17497662 0.28372484
0.58043355 -0.17277406 0.28364679
0.60910457 -0.17902443 0.2841315
0.61486024 -0.1753853 0.28440091
0.62446022 -0.17553233 0.28610757
0.6349088 -0.17501689 0.28622147
0.64525545 -0.17442757 0.28536022
0.65458828 -0.17519814 0.2851589
0.66029978 -0.17819542 0.28149024
0.56570822 -0.16546521 0.28139219
0.57451022 -0.16447863 0.28360447
0.58251429 -0.16408278 0.28493166
0.61642802 -0.16434216 0.2847361
0.62471014 -0.16519453 0.28517696
0.63540459 -0.16532899 0.28526002
0.64473325 -0.16471325 0.28373715
0.65246063 -0.16597964 0.28257191
0.5688684 -0.15772772 0.28004208
0.57581544 -0.15534642 0.28208774
0.58558375 -0.15466863 0.28511786
0.59517413 -0.15303642 0.28622311
0.60336518 -0.15134816 0.28640136
0.61523557 -0.15473405 0.28497827
0.62557173 -0.15464292 0.28394544
0.63446367 -0.15583636 0.28231791
0.64300966 -0.1578332 0.28121191
0.57906055 -0.14861834 0.28039336
0.58617181 -0.14631987 0.28269458
0.5948391 -0.144464 0.28474009
0.60479885 -0.14477198 0.28589964
0.61490577 -0.14544916 0.28482637
0.62486267 -0.1445511 0.28278846
0.63121647 -0.14727075 0.28074172
0.59755731 -0.13695876 0.28176284
0.60587704 -0.13580048 0.28345031
0.61524689 -0.13565835 0.28404135
0.62444329 -0.13491543 0.28210074
0.6156829 -0.1285015 0.28147009
0.62498975 -0.12616234 0.2813023
0.64779103 -0.23021787 0.29051727
0.64863807 -0.22484326 0.29032847
0.65356076 -0.22310583 0.29091069
0.64923763 -0.21862571 0.29008096
0.65492159 -0.21455826 0.29123303
0.66041362 -0.21044396 0.29055148
0.65584052 -0.20581436 0.29085255
0.6603356 -0.2085261 0.29045498
0.65458661 -0.19559887 0.29040813
0.65579265 -0.18861577 0.29017097
