# .PCD v0.7 - Point Cloud Data file format
VERSION 0.7
FIELDS x y z
SIZE 4 4 4
TYPE F F F
COUNT 1 1 1
WIDTH 136
HEIGHT 1
VIEWPOINT 0 0 0 1 0 0 0
POINTS 136
DATA ascii
0.76469648 -0.0049792342 0.16660468
0.77359551 -0.0039052889 0.16447501
0.70155263 -0.011766441 0.17840061
0.72425991 -0.010635138 0.17958581
0.75362253 -0.010592815 0.17806932
0.7355783 -0.0080494173 0.17179693
0.7590974 -0.0098035485 0.17619264
0.7645371 -0.0096225627 0.17685211
0.77220464 -0.0080031604 0.17510428
0.6644122 -0.015499309 0.1842643
0.67503101 -0.014684496 0.18363412
0.68447989 -0.013443839 0.18093629
0.7070179 -0.011891206 0.18033151
0.71248072 -0.012138635 0.18277001
0.72108054 -0.011511527 0.18239555
0.73521525 -0.013631081 0.18598878
0.74491501 -0.011768349 0.18072052
0.75679284 -0.015136237 0.18898557
0.76545382 -0.013626737 0.18669996
0.77400714 -0.014211312 0.18959206
0.5942896 -0.020719204 0.19640516
0.6153475 -0.02179583 0.19766849
0.62438011 -0.020585895 0.19499041
0.64466894 -0.022118971 0.19792321
0.65497655 -0.021078613 0.19625452
0.66559803 -0.02075237 0.19765571
0.67399961 -0.020217339 0.19760509
0.62922144 -0.019513145 0.19179672
0.63222003 -0.019012377 0.19049689
0.67820406 -0.01994966 0.1975801
0.6843614 -0.018948093 0.19499265
0.69483787 -0.017851669 0.19313338
0.70552224 -0.017668251 0.19514857
0.7151373 -0.017641548 0.19754104
0.72463602 -0.016430834 0.19494881
0.73749542 -0.018316602 0.19736226
0.74495566 -0.016763557 0.19275692
0.75386447 -0.017338762 0.19455464
0.76526207 -0.018325403 0.19754991
0.77182323 -0.01454863 0.19044465
0.55481511 -0.027474571 0.20554586
0.56522912 -0.02706093 0.20652542
0.57560372 -0.026600042 0.2072989
0.58499211 -0.026256472 0.20830354
0.59371644 -0.025991404 0.20946181
0.60504872 -0.024262758 0.20522867
0.61797798 -0.026386775 0.20883009
0.62484795 -0.025329256 0.20619425
0.63482124 -0.023963988 0.2030789
0.65731692 -0.02612412 0.20932302
0.66357017 -0.025846303 0.20978925
0.67484206 -0.024720732 0.2079896
0.6851545 -0.023733914 0.20652457
0.69557071 -0.022982787 0.2060827
0.70404738 -0.023086846 0.20874546
0.72702748 -0.021184808 0.20673569
0.73867631 -0.023054749 0.20888826
0.74499679 -0.021584205 0.2042831
0.75241441 -0.020739133 0.20263638
0.7671805 -0.023306549 0.20857495
0.77348357 -0.020437658 0.2069146
0.73223066 -0.019792132 0.20221594
0.75668603 -0.01999414 0.2005859
0.76945025 -0.019189149 0.20052224
0.77616996 -0.01735951 0.20346107
0.78166276 -0.016324252 0.20935547
0.48507768 -0.032696497 0.21751562
0.49594444 -0.032619774 0.21762773
0.50497925 -0.032388262 0.21721926
0.51559573 -0.032988299 0.21685652
0.52516478 -0.032617949 0.21538186
0.53457302 -0.033023968 0.21630473
0.54562128 -0.033281814 0.21565771
0.55414468 -0.032633539 0.21592188
0.56502122 -0.031287573 0.21554458
0.57525241 -0.030784503 0.21610427
0.58462095 -0.030538186 0.21751361
0.6163547 -0.030907759 0.21879214
0.62130904 -0.030367248 0.21780768
0.63475114 -0.031788163 0.21870431
0.64493334 -0.031097874 0.21844821
0.65525973 -0.030686721 0.21942115
0.66144228 -0.030412048 0.21988207
0.48672658 -0.029457226 0.2129709
0.4942016 -0.028500687 0.2109886
0.50966787 -0.029872164 0.21223885
0.51351076 -0.029454032 0.21150964
0.53341717 -0.02989547 0.21004426
0.59577554 -0.026390068 0.21164659
0.6079492 -0.029056912 0.21739113
0.61339092 -0.027601728 0.21271934
0.6261937 -0.029669613 0.21614109
0.63405699 -0.028551251 0.21347809
0.64414465 -0.02752636 0.21179323
0.65227479 -0.026748637 0.2106394
0.66533774 -0.025847891 0.21025945
0.67572135 -0.029301811 0.21891613
0.68576974 -0.027808432 0.21519804
0.69510424 -0.027369965 0.21579243
0.70372218 -0.026168525 0.21589433
0.71457207 -0.023051867 0.21135788
0.7250998 -0.024215247 0.21467964
0.73559737 -0.025572037 0.21529731
0.74503958 -0.026233722 0.21529932
0.75447911 -0.0250016 0.21250077
0.76519847 -0.025999118 0.2152019
0.77533293 -0.023268441 0.21505494
0.78134096 -0.020614371 0.2185697
0.77951407 -0.019253612 0.21234119
0.61429226 -0.036093757 0.22576076
0.6252349 -0.035871796 0.22561188
0.63518101 -0.036603879 0.22601114
0.6448639 -0.035248153 0.22500725
0.65491045 -0.034183741 0.22558369
0.66522014 -0.032178398 0.22360188
0.67426449 -0.033041239 0.22580841
0.68502921 -0.032825716 0.22524641
0.69429612 -0.032874625 0.22653277
0.70293218 -0.03165774 0.22747201
0.72650337 -0.030414268 0.22838339
0.73581845 -0.031710379 0.22765255
0.74507904 -0.030657623 0.22555161
0.75369185 -0.030982191 0.22631077
0.76473266 -0.032073617 0.2280788
0.77193195 -0.031823032 0.22891998
0.70671296 -0.028004328 0.22156513
0.71503657 -0.028126309 0.22428393
0.7248289 -0.028053038 0.22437845
0.7336331 -0.028566221 0.22231643
0.75649267 -0.029237131 0.22242691
0.76068538 -0.028506726 0.22037107
0.77596271 -0.027966736 0.22467218
0.78210628 -0.024514403 0.22659379
0.7543804 -0.035580516 0.23447904
0.77459085 -0.034683064 0.23553407
0.78593618 -0.026824914 0.23509721
