# .PCD v0.7 - Point Cloud Data file format
VERSION 0.7
FIELDS x y z
SIZE 4 4 4
TYPE F F F
COUNT 1 1 1
WIDTH 281
HEIGHT 1
VIEWPOINT 0 0 0 1 0 0 0
POINTS 281
DATA ascii
0.69462216 -0.47487578 0.29448491
0.6990329 -0.4680348 0.29562962
0.70235157 -0.4631761 0.29407692
0.7117548 -0.45322141 0.29707697
0.71693474 -0.44772306 0.29503909
0.73091716 -0.44036466 0.29676765
0.74155736 -0.43178022 0.29583931
0.69726664 -0.47202563 0.3057231
0.69951051 -0.46893984 0.3027373
0.70360059 -0.46334952 0.30419257
0.70756811 -0.45894131 0.30522576
0.71388847 -0.45326552 0.30523315
0.71895409 -0.44833106 0.30501199
0.72524691 -0.44318423 0.30505621
0.73108393 -0.44053936 0.30381697
0.73614818 -0.43861985 0.30444923
0.74329686 -0.43307343 0.30510354
0.74828684 -0.42805919 0.30514899
0.75462139 -0.4241299 0.30455974
0.76174045 -0.42076269 0.30422935
0.76675344 -0.41787529 0.30487892
0.77460808 -0.41409305 0.30461401
0.78402489 -0.41188654 0.30551854
0.78866994 -0.40878788 0.30346924
0.79506397 -0.40683523 0.30487126
0.79625529 -0.51761007 0.3133288
0.70286638 -0.46477729 0.31359151
0.70837641 -0.45847622 0.31497154
0.7138831 -0.45395538 0.31518024
0.71841472 -0.44974622 0.31432486
0.7244001 -0.44449511 0.31541434
0.73127425 -0.44017142 0.31285059
0.73600912 -0.43818372 0.31638283
0.74340791 -0.43401715 0.31499621
0.74889505 -0.42865708 0.31466183
0.75510132 -0.42419341 0.31478342
0.76191282 -0.42080557 0.31378299
0.7665385 -0.41834891 0.31552768
0.77484018 -0.414323 0.31468305
0.78606004 -0.4116168 0.31650543
0.79344177 -0.40787944 0.31592432
0.78912777 -0.51179296 0.32669002
0.79504204 -0.51215005 0.32264203
0.79565442 -0.50961012 0.32708725
0.69709253 -0.47087222 0.32272404
0.69910413 -0.46773347 0.32674628
0.70337743 -0.46407747 0.32263404
0.70873994 -0.45840675 0.32202438
0.71512473 -0.45287055 0.32285494
0.72493732 -0.44427902 0.32523477
0.7314505 -0.44001812 0.32088917
0.73644114 -0.43743289 0.32550058
0.74346584 -0.43366337 0.32402039
0.7492094 -0.42866853 0.32372287
0.75529861 -0.42423597 0.32431507
0.76175952 -0.42061383 0.32279861
0.76628149 -0.41818684 0.32694644
0.77468801 -0.41438082 0.32349539
0.78442544 -0.4117772 0.32537395
0.79422522 -0.40708804 0.32381204
0.79650921 -0.50565338 0.33424532
0.70492613 -0.46142581 0.33492714
0.70833564 -0.45842385 0.33203465
0.7134766 -0.45374712 0.33371404
0.71918643 -0.44888753 0.33492637
0.72547466 -0.44340077 0.33615348
0.73533666 -0.43725342 0.33410913
0.74380285 -0.4325861 0.33386841
0.74889463 -0.4286015 0.33423799
0.75580591 -0.42360616 0.33469936
0.76062375 -0.42052716 0.33525801
0.76696253 -0.41728354 0.33634377
0.77525604 -0.41369286 0.33384809
0.78493237 -0.41118842 0.3341704
0.79355526 -0.40654951 0.33491361
0.79786229 -0.49906191 0.34633747
0.70719814 -0.45854807 0.34467122
0.71333599 -0.45350578 0.34398332
0.71843201 -0.44914541 0.34642723
0.72395998 -0.44412506 0.34510794
0.72847766 -0.43998778 0.34977716
0.73369682 -0.43731594 0.34402686
0.74442458 -0.43155009 0.34156483
0.74886703 -0.42784184 0.34474251
0.7550987 -0.4235321 0.34501675
0.76050156 -0.42046991 0.34327829
0.76582944 -0.41723388 0.34534121
0.77489942 -0.41325635 0.3438406
0.78310645 -0.41095865 0.34355795
0.78843176 -0.40888682 0.34587649
0.79377204 -0.40497732 0.34610128
0.79399991 -0.49607697 0.35518795
0.69924051 -0.46376899 0.35869896
0.70242405 -0.46150315 0.35381585
0.70858645 -0.45642394 0.35505247
0.71376246 -0.45255694 0.35376066
0.71834379 -0.44855303 0.35944504
0.72424895 -0.44329411 0.3548803
0.73475415 -0.43588129 0.35424796
0.7488429 -0.42715824 0.35474882
0.75499302 -0.42285338 0.35521787
0.76432765 -0.41745409 0.35533428
0.77524716 -0.41244617 0.35536119
0.78272694 -0.41051471 0.35154033
0.78696412 -0.40864563 0.35646248
0.7935183 -0.40397441 0.35473624
0.78984499 -0.49104503 0.36994356
0.70695424 -0.45651078 0.36572495
0.71338993 -0.45184216 0.36524487
0.71767503 -0.44896564 0.36443353
0.72367787 -0.44347855 0.36413264
0.72885287 -0.43838227 0.36579484
0.73492306 -0.4346391 0.36574873
0.74102944 -0.43108749 0.36839199
0.74737459 -0.42725244 0.36635461
0.75460082 -0.42247126 0.36551142
0.76448911 -0.41687974 0.36516881
0.77519244 -0.41191539 0.36508551
0.78141987 -0.4102985 0.3604663
0.78530765 -0.40844336 0.36536232
0.79005277 -0.40562916 0.36391985
0.79877388 -0.39828628 0.36323762
0.69640958 -0.49147871 0.37886673
0.79861283 -0.48707789 0.37042838
0.70701534 -0.45570603 0.37497902
0.71215314 -0.45176855 0.3758564
0.71719772 -0.448603 0.37408558
0.72373229 -0.44322678 0.37466741
0.72796178 -0.43922615 0.37480274
0.73507881 -0.43374279 0.3757588
0.74110436 -0.43022439 0.37839741
0.74622786 -0.42742044 0.37504324
0.7544508 -0.42207131 0.37562186
0.75906885 -0.41940537 0.37725565
0.7645148 -0.41669253 0.37415642
0.77330416 -0.41205555 0.3745575
0.77886188 -0.4097358 0.37831646
0.7843011 -0.40820456 0.37364092
0.7930032 -0.40189803 0.37200218
0.70059919 -0.49130595 0.38922018
0.69676387 -0.48731974 0.38572586
0.79558402 -0.4800691 0.38593012
0.70634896 -0.45481539 0.38392234
0.71256375 -0.45135486 0.38423538
0.71731138 -0.44801554 0.38504416
0.72297269 -0.44375429 0.38534382
0.72883528 -0.43839407 0.38620964
0.73508912 -0.43343502 0.38601983
0.74539512 -0.42711955 0.38636109
0.75357723 -0.42236522 0.38584349
0.75865299 -0.41940793 0.38659501
0.76491719 -0.41630691 0.38546461
0.77341968 -0.41165549 0.38559195
0.77842683 -0.40911305 0.3882941
0.78463906 -0.40708753 0.38382185
0.79238504 -0.40141827 0.38197261
0.7940588 -0.399593 0.38201475
0.69758397 -0.48290634 0.39441597
0.70097595 -0.48679003 0.39706814
0.79008859 -0.48037905 0.39054382
0.79912323 -0.47431019 0.39496601
0.69983113 -0.45347738 0.39842027
0.70561016 -0.45311791 0.39633611
0.71228093 -0.45156077 0.3952679
0.7172721 -0.44838119 0.39537489
0.72458428 -0.44305795 0.39611086
0.72883767 -0.43892196 0.39568943
0.73566115 -0.43393236 0.39553288
0.74190813 -0.4307816 0.39789686
0.74601483 -0.42722151 0.39628649
0.75511324 -0.42218027 0.39606896
0.75970757 -0.41955519 0.3938784
0.76573849 -0.41670573 0.39557841
0.77356881 -0.41206264 0.39609331
0.77810514 -0.4093498 0.39631304
0.78530025 -0.4060297 0.39469975
0.79148895 -0.40146631 0.39696681
0.79579699 -0.39635435 0.39605173
0.74705791 -0.49469057 0.40840331
0.69935793 -0.48003983 0.40164578
0.70370936 -0.4839206 0.40793583
0.69720328 -0.47314981 0.40571228
0.7032752 -0.47484043 0.40856159
0.78672361 -0.473775 0.40587148
0.79370689 -0.4722915 0.40215325
0.6974951 -0.46553457 0.40648824
0.70262462 -0.46479431 0.40859535
0.79550284 -0.46835813 0.40725937
0.69892907 -0.45762643 0.40724862
0.70454234 -0.45533523 0.40653995
0.71268708 -0.45241472 0.40615207
0.71830779 -0.44892105 0.40547839
0.72482055 -0.44503126 0.4060142
0.73406672 -0.44261187 0.40819886
0.74237257 -0.44165006 0.40858153
0.72989619 -0.43966293 0.40208083
0.73630244 -0.43690041 0.4039475
0.74500561 -0.43472373 0.40694067
0.75677997 -0.43121222 0.40954381
0.76160067 -0.43009081 0.40907949
0.74868822 -0.42801815 0.40372464
0.7559278 -0.42565671 0.40564287
0.76510048 -0.42398289 0.40679312
0.77136612 -0.42207581 0.40944976
0.76749122 -0.41820365 0.40304604
0.77459276 -0.41411042 0.40617794
0.78099471 -0.41069752 0.40965074
0.77955139 -0.40910545 0.40243661
0.78482598 -0.40695253 0.4058142
0.79184932 -0.40128112 0.40501806
0.79635495 -0.39559951 0.40598771
0.71949172 -0.50100839 0.41823542
0.72532666 -0.50220782 0.4180221
0.73554957 -0.50141943 0.41446552
0.71766698 -0.49345821 0.41642138
0.72494996 -0.49505949 0.41646534
0.73498607 -0.49492723 0.41451749
0.7431314 -0.49349269 0.4124282
0.75231022 -0.49115279 0.41124949
0.70748872 -0.48459628 0.41227356
0.71464324 -0.48464531 0.41422278
0.72449905 -0.48502234 0.41582623
0.73434299 -0.48513371 0.4154869
0.74463403 -0.48490295 0.41268969
0.7533884 -0.48437926 0.41282737
0.7624523 -0.48085794 0.41723058
0.70819467 -0.47484493 0.41168809
0.71509951 -0.47485313 0.41376686
0.72517055 -0.47545716 0.41568607
0.73500144 -0.47535044 0.41581467
0.74496502 -0.47497097 0.41439232
0.75514263 -0.47491577 0.41521844
0.76520532 -0.47524607 0.41871068
0.7742666 -0.47275972 0.41918394
0.78236604 -0.47207126 0.41282001
0.70782036 -0.46550432 0.41131416
0.7153241 -0.46502125 0.41400257
0.7254715 -0.46539837 0.41573
0.73542303 -0.46539128 0.41515383
0.74541157 -0.46494606 0.41665968
0.75561726 -0.46485791 0.41680241
0.76523286 -0.46531898 0.41732809
0.77527404 -0.46524459 0.41738838
0.78504974 -0.46432844 0.41658634
0.79454756 -0.46367484 0.41347694
0.70730913 -0.45850521 0.41065177
0.71587056 -0.45591187 0.41330299
0.72507441 -0.4552848 0.41564059
0.73503071 -0.45486996 0.41630057
0.74500161 -0.45456088 0.41760209
0.75478208 -0.45466444 0.41701636
0.76518667 -0.45483273 0.4162558
0.77513683 -0.45530805 0.41632757
0.78510463 -0.45537636 0.41676012
0.7951088 -0.454916 0.41756099
0.72544467 -0.4483313 0.41285858
0.73463529 -0.4475033 0.41311654
0.74500871 -0.44553772 0.41295454
0.75471818 -0.44504192 0.41435924
0.76463133 -0.44461203 0.41507164
0.77466297 -0.44541931 0.41582453
0.78467143 -0.44522893 0.41666639
0.79466522 -0.4447521 0.41752145
0.74849153 -0.43852204 0.41048062
0.75428838 -0.43612856 0.41126546
0.76481849 -0.43482664 0.412826
0.77484041 -0.43527964 0.41569418
0.78488606 -0.43482217 0.41738325
0.79494667 -0.43443829 0.41841012
0.75317293 -0.42991424 0.41043317
0.7676006 -0.4286046 0.41084978
0.77570504 -0.42534128 0.41406113
0.78544933 -0.4248032 0.41693324
0.79546154 -0.42450362 0.41773412
0.77738088 -0.41684115 0.41220325
0.78504032 -0.41490161 0.41483599
0.79509979 -0.41459998 0.41624317
0.78783965 -0.40788874 0.41260862
0.79485023 -0.40481266 0.41528305
0.79709148 -0.39755803 0.41297531
0.7734732 -0.47423893 0.42010564
