# .PCD v0.7 - Point Cloud Data file format
VERSION 0.7
FIELDS x y z
SIZE 4 4 4
TYPE F F F
COUNT 1 1 1
WIDTH 104
HEIGHT 1
VIEWPOINT 0 0 0 1 0 0 0
POINTS 104
DATA ascii
0.76525146 -0.50108165 0.36853212
0.76556617 -0.49610764 0.36789125
0.77140474 -0.4328334 0.3657825
0.76762003 -0.42699492 0.36421278
0.76347935 -0.41393933 0.3649525
0.76515353 -0.50144494 0.37506807
0.76640713 -0.49043384 0.37815863
0.76587367 -0.48770851 0.37698501
0.75659126 -0.41301486 0.37622344
0.76315176 -0.41622379 0.37528485
0.7505551 -0.49013326 0.38998187
0.76353532 -0.4940379 0.38329613
0.75120133 -0.48480782 0.38752094
0.76430464 -0.48479363 0.38425756
0.74974447 -0.47031793 0.38597232
0.75207436 -0.47628871 0.38382223
0.75465196 -0.42057562 0.38701278
0.75723892 -0.41552457 0.38516542
0.7632516 -0.41813055 0.38538113
0.74560678 -0.50595033 0.39481717
0.74853998 -0.4969503 0.39394227
0.7506938 -0.49333072 0.39576611
0.76345676 -0.49645242 0.39461589
0.75566345 -0.48407492 0.39696133
0.76091337 -0.48467153 0.39496455
0.75602549 -0.47546196 0.39439434
0.76165515 -0.47747564 0.3955065
0.75479794 -0.46796101 0.39829695
0.7529887 -0.42281884 0.3920114
0.76496291 -0.4208256 0.3918311
0.75701869 -0.41600376 0.39099461
0.76218528 -0.41807836 0.39600673
0.74297112 -0.51190364 0.40461028
0.74827749 -0.50670171 0.40439489
0.75178713 -0.50199705 0.40655756
0.75441313 -0.49435279 0.40409166
0.76416749 -0.49052182 0.40610433
0.75546271 -0.48840657 0.40132105
0.76077729 -0.48975548 0.40279615
0.76093423 -0.47269207 0.40200275
0.74943507 -0.46191019 0.40663666
0.75533915 -0.46488559 0.40505424
0.76151139 -0.4681409 0.40785646
0.76372039 -0.41885108 0.4062013
0.7353735 -0.51480186 0.41531989
0.74410099 -0.51169693 0.41470242
0.74882907 -0.50854504 0.41515037
0.75267237 -0.50388646 0.41580313
0.75695002 -0.49562541 0.41556463
0.76167738 -0.4911111 0.41558009
0.76562136 -0.48977244 0.41672286
0.75953382 -0.46290821 0.41348213
0.76502204 -0.46469891 0.41549343
0.74929869 -0.45833007 0.41248149
0.75499827 -0.45652124 0.41615412
0.7548883 -0.41806665 0.41435632
0.76418895 -0.4169932 0.41970414
0.72451949 -0.51667941 0.42532897
0.73513818 -0.51516992 0.42506066
0.74471575 -0.51206738 0.42624265
0.74891168 -0.50953025 0.42340288
0.75500923 -0.50442523 0.4260025
0.75859457 -0.49712217 0.42528859
0.76324737 -0.49256548 0.42570907
0.76715511 -0.48937565 0.42234391
0.76431972 -0.46043578 0.42076063
0.7544235 -0.45199946 0.42211393
0.76374453 -0.45624295 0.42572138
0.75386292 -0.44438693 0.42563489
0.74989933 -0.43221998 0.42635584
0.75353402 -0.43487686 0.42706874
0.75419146 -0.42624077 0.42885691
0.75592291 -0.41907209 0.42519289
0.71756053 -0.53115088 0.43858701
0.72562474 -0.53079259 0.43918821
0.73368895 -0.53043431 0.43978947
0.71518642 -0.52517575 0.43768641
0.72519863 -0.52509207 0.43830511
0.73460591 -0.52442557 0.43957609
0.74472374 -0.5209347 0.43961313
0.75290143 -0.52110416 0.43931565
0.71523219 -0.51802909 0.4344981
0.72528905 -0.51787251 0.43599683
0.73468214 -0.51697755 0.43638563
0.74504089 -0.51546305 0.43588898
0.75488251 -0.51481098 0.43601948
0.76201111 -0.51258123 0.4352369
0.7569555 -0.50741512 0.43167305
0.76301044 -0.50476319 0.43274933
0.76465595 -0.49638861 0.43216524
0.76538837 -0.45193216 0.43148565
0.75884467 -0.44177967 0.4312579
0.76491529 -0.44458371 0.43535778
0.75894004 -0.43449488 0.43209276
0.76449496 -0.4350189 0.43640399
0.75594139 -0.42402992 0.43086687
0.76443887 -0.42583039 0.43803602
0.76319945 -0.41841826 0.43796912
0.73852754 -0.53021938 0.4401502
0.73880005 -0.52686483 0.44026375
0.74447304 -0.52464682 0.4403429
0.7523005 -0.52321768 0.44067463
0.76554936 -0.42204267 0.44062966
0.76543355 -0.4194954 0.44100261
