# .PCD v0.7 - Point Cloud Data file format
VERSION 0.7
FIELDS x y z rgb
SIZE 4 4 4 4
TYPE F F F U
COUNT 1 1 1 1
WIDTH 1126
HEIGHT 1
VIEWPOINT 0 0 0 1 0 0 0
POINTS 1126
DATA ascii
0.70074308 -0.36796147 0.27196044 4676186
0.70071775 -0.3658486 0.27286285 4676186
0.70058149 -0.36398879 0.27176052 4676186
0.70050073 -0.36200243 0.27166063 4873565
0.7004199 -0.36001611 0.27156067 4939612
0.70028329 -0.35814685 0.27045786 5069915
0.70020241 -0.35615814 0.27035779 5004122
0.70012152 -0.35416943 0.27025777 4873306
0.69998449 -0.35229072 0.26915449 4873306
0.69995975 -0.35019201 0.27005762 4741720
0.69987887 -0.3482033 0.26995754 4675927
0.69985437 -0.34611166 0.27086103 4544854
0.69977361 -0.34412533 0.27076107 4479059
0.69974941 -0.34204078 0.27166486 4413266
0.69972545 -0.33996096 0.27256888 4544341
0.69970161 -0.33788589 0.27347314 4478546
0.69973493 -0.33572441 0.2753818 4281167
0.69971162 -0.33366114 0.27628666 4281167
0.69968849 -0.33160257 0.2771917 4149581
0.69960839 -0.32963276 0.27709264 4017995
0.69958556 -0.32758129 0.27799809 4083018
0.69944811 -0.32569313 0.27689439 3885639
0.69948298 -0.32356945 0.27880496 3950916
0.69957578 -0.32138065 0.28172088 4279368
0.69961143 -0.31927821 0.28363246 4279881
0.69964755 -0.31718522 0.28554451 4279881
0.69962615 -0.31516919 0.28645176 4411467
0.69954699 -0.313223 0.28635383 4214602
0.69946784 -0.31127679 0.2862559 4148809
0.69933051 -0.30939099 0.28515232 4214602
0.69925123 -0.30744246 0.28505427 4214602
0.69905531 -0.30560523 0.28294444 4149062
0.69891745 -0.30370528 0.28184015 4017476
0.69877934 -0.30180061 0.28073567 4017476
0.69864106 -0.29989117 0.27963084 3885890
0.69850266 -0.29797703 0.27852589 3885376
0.69854045 -0.29592657 0.28044009 3819583
0.69863755 -0.29384404 0.28336138 3687997
0.69885325 -0.29169741 0.28829676 3621691
0.69901085 -0.28961116 0.29222655 3424825
0.69922835 -0.28750941 0.29716426 3293239
0.69944686 -0.28543127 0.3021031 3095858
0.69966632 -0.28337672 0.30704319 3030065
0.69982725 -0.28137314 0.3109771 3095599
0.70004857 -0.27936351 0.31591946 3161392
0.70021111 -0.27740008 0.31985545 3490355
0.70025486 -0.27549607 0.32177699 3819572
0.70023918 -0.27361935 0.32269126 5990221
0.70022362 -0.27174738 0.32360578 7437667
0.70020825 -0.26988015 0.32452047 12834480
0.70019311 -0.26801762 0.32543546 12309931
0.70017815 -0.26615983 0.32635063 12902068
0.70010304 -0.26431283 0.32625771 13496004
0.70002788 -0.26246583 0.32616472 13431494
0.70001334 -0.26061749 0.32708049 14024399
0.6999383 -0.25877285 0.32698762 14155729
0.69986331 -0.25692824 0.32689482 14221266
0.69984907 -0.25508931 0.327811 14417877
0.69989604 -0.25326324 0.32973647 14942174
0.69988233 -0.25143614 0.33065325 15073248
0.69992995 -0.24962659 0.33257955 15466472
0.69991672 -0.2478113 0.33349693 15859692
0.699965 -0.24601829 0.33542407 16252913
0.70007509 -0.24425462 0.33836138 16252913
0.7001242 -0.24248286 0.34028965 16383991
0.70029694 -0.24076979 0.34423816 16449527
0.70028538 -0.23899466 0.34515756 16449529
0.70021218 -0.23719491 0.34506702 16449529
0.70013899 -0.23539515 0.34497643 16449529
0.70006573 -0.23359539 0.34488589 16449529
0.69993049 -0.23175919 0.34378481 16383992
0.69979501 -0.22991827 0.34268343 16252662
0.69965929 -0.22807263 0.34158188 15990771
0.69952345 -0.22622228 0.34048009 15597554
0.69932491 -0.22432131 0.3383671 15466480
0.69925112 -0.22250739 0.33827585 15335405
0.69917738 -0.22069344 0.33818454 15138794
0.69910359 -0.21887952 0.33809328 15007460
0.6990298 -0.21706559 0.33800203 15007460
0.69901896 -0.21530935 0.33892232 14942178
0.69894528 -0.21349779 0.33883119 14811104
0.69893473 -0.21174863 0.33975184 14811104
0.69879794 -0.20987464 0.33864886 14745567
0.69878757 -0.20813024 0.33956975 14680030
0.69871396 -0.20632102 0.33947873 14745565
0.69864041 -0.20451182 0.33938771 14483417
0.69856679 -0.20270261 0.33929664 13957073
0.69855696 -0.20096999 0.34021813 12969408
0.69841963 -0.19908419 0.33911461 12640189
0.69834602 -0.197275 0.33902353 13890256
0.69820845 -0.19538212 0.33791965 13561291
0.69819885 -0.19365658 0.3388415 13167816
0.69831789 -0.19211257 0.34178984 13233609
0.69843745 -0.19058272 0.34473896 12969924
0.69855767 -0.18906705 0.34768873 14089172
0.69867837 -0.18756557 0.35063928 13694414
0.69879973 -0.18607822 0.35359049 13628621
0.69892162 -0.18460508 0.35654247 12050872
0.69897932 -0.18304351 0.35848123 12906181
0.69910228 -0.18159634 0.36143446 14089690
0.69916081 -0.18005604 0.36337435 13497553
0.69915473 -0.17841555 0.36430049 12379072
0.69908363 -0.17666775 0.36421257 12970439
0.69901252 -0.17491995 0.3641246 14352092
0.6990068 -0.1732889 0.36505127 14548959
0.69900125 -0.17166255 0.36597806 13299406
0.69899589 -0.17004095 0.36690515 13299152
0.69892508 -0.16830024 0.36681759 15007713
0.69898576 -0.16681193 0.36876011 14021330
0.69891518 -0.16507594 0.36867279 10993058
0.6989764 -0.16360174 0.3706159 10663321
0.698906 -0.16187048 0.37052876 11320987
0.69896781 -0.16041049 0.3724727 11386780
0.69896382 -0.15882196 0.37340152 11058583
0.69896001 -0.15723814 0.37433046 10795409
0.69895637 -0.15565905 0.3752597 10729616
0.69895297 -0.15408465 0.37618917 11124374
0.69894969 -0.15251502 0.37711889 11781788
0.69901335 -0.15109991 0.37906504 11320976
0.69901061 -0.14954205 0.37999535 11715734
0.69900805 -0.14798895 0.38092583 12768676
0.69907266 -0.14659747 0.38287324 13031076
0.69907057 -0.14505616 0.38380444 11848083
0.69913584 -0.14368118 0.38575256 11321739
0.69913423 -0.14215168 0.38668436 12769187
0.69920021 -0.14079326 0.38863337 13163945
0.69926655 -0.13944428 0.39058286 13558451
0.69926572 -0.13793367 0.39151555 13755830
0.69926506 -0.13642779 0.39244843 13822137
0.69933236 -0.13510242 0.39439911 13559737
0.69933218 -0.13360837 0.39533269 12835760
0.69933224 -0.13211903 0.3962664 11190935
0.69940048 -0.13081726 0.39821821 11387030
0.69933289 -0.1291545 0.39813459 13162928
0.69933349 -0.12767933 0.39906907 12111521
0.69926596 -0.12601893 0.39898551 13624760
0.69926685 -0.12455083 0.39992034 13822139
0.69919938 -0.1228928 0.3998369 10598282
0.69913197 -0.12123474 0.39975345 10400903
0.69913322 -0.11977613 0.40068871 10665358
0.69906586 -0.11812043 0.40060544 10927763
0.69899857 -0.11646476 0.40052211 13691071
0.69893122 -0.11480907 0.40043879 14020036
0.69886386 -0.11315337 0.40035552 13954756
0.69879651 -0.1114977 0.40027219 13888702
0.69872916 -0.10984203 0.40018886 14020288
0.69866186 -0.10818633 0.40010554 13888702
0.69859451 -0.10653067 0.40002227 13954495
0.69852716 -0.10487497 0.39993894 13888702
0.6984598 -0.10321927 0.39985561 13757116
0.69846225 -0.10178898 0.40079236 13822139
0.69839501 -0.10013567 0.40070915 14412999
0.6983977 -0.098712474 0.4016462 14475213
0.69847065 -0.097526446 0.40360397 11053977
0.69847387 -0.096115053 0.40454167 13687221
0.69854748 -0.094945565 0.40650016 13491629
0.69855118 -0.093545988 0.40743846 14211516
0.69855505 -0.092151105 0.40837693 10132350
0.69855911 -0.090760976 0.40931565 13094816
0.6985634 -0.089375541 0.4102546 13030543
0.69849712 -0.087745845 0.41017258 12833418
0.69843078 -0.08611612 0.41009063 13622934
0.6983645 -0.08448644 0.41000861 12306050
0.69829822 -0.08285673 0.40992659 12174464
0.69823194 -0.081227034 0.40984458 11911292
0.69816566 -0.079597339 0.40976262 11845499
0.69809937 -0.077967629 0.4096806 11845753
0.69796169 -0.076072395 0.40857655 11582833
0.69782382 -0.074172422 0.40747225 11582833
0.69761413 -0.071997494 0.40534544 11714417
0.69747579 -0.070085689 0.40424055 11582829
0.69726545 -0.06789422 0.4021129 11451243
0.69705468 -0.065693289 0.39998478 11319657
0.69677162 -0.063203201 0.39683342 11254638
0.6964879 -0.060698926 0.39368135 11254384
0.69620371 -0.058180511 0.39052856 11254384
0.69591886 -0.05564791 0.38737506 10991212
0.69570583 -0.053390279 0.38524407 10991212
0.69541991 -0.050831735 0.38208932 11122798
0.69513345 -0.04825896 0.37893379 10991212
0.69491911 -0.045968294 0.37680113 11122798
0.69470435 -0.043668121 0.374668 11845753
0.69441634 -0.041057616 0.37151057 11845753
0.69412774 -0.038432911 0.36835241 11911289
0.6938386 -0.03579402 0.36519355 11648115
0.69354892 -0.033140928 0.36203408 11648115
0.69325858 -0.030473709 0.35887372 11779701
0.6928944 -0.027479514 0.35468829 11911287
0.69267625 -0.025096759 0.3525511 11977080
0.69238424 -0.022386983 0.3493886 11911287
0.69201803 -0.019343197 0.34520072 11779955
0.69165099 -0.016280532 0.34101182 11582576
0.69143087 -0.013848141 0.33887208 11516783
0.69106251 -0.01075241 0.33468151 11385195
0.69076741 -0.0079670548 0.33151531 11385193
0.69039768 -0.0048359334 0.32732302 11385193
0.6898787 -0.0010178089 0.32107878 11188068
0.68921006 0.0035014451 0.31278181 11253864
0.68853986 0.008058548 0.30448306 11517036
0.68786812 0.012653351 0.29618233 11779951
0.68726945 0.016942561 0.28890562 11582576
0.68659472 0.021610588 0.28060132 11516783
0.68591851 0.026316434 0.27229494 6383426
0.68539047 0.030358911 0.26603943 5792090
0.68501115 0.033723921 0.2618354 5332058
0.68470615 0.036752522 0.25865686 5332058
0.68447572 0.039437622 0.25650442 5200472
0.68432015 0.041772187 0.25537825 5266778
0.6841644 0.04411146 0.25425184 5200985
0.68408394 0.046090752 0.25415224 5332571
0.68392789 0.048437119 0.25302547 5332058
0.68384731 0.050418735 0.25292575 5528667
0.68376666 0.052400351 0.25282604 5462874
0.68376189 0.054007798 0.2537539 5397079
0.68368137 0.05598706 0.2536543 5332056
0.6836769 0.057587355 0.25458246 5068884
0.68367261 0.059183031 0.25551087 5266263
0.68366849 0.060773909 0.25643951 5200985
0.68366462 0.062360108 0.25736833 5462874
0.68358445 0.064329922 0.2572692 5462874
0.68358088 0.065909028 0.25819844 5133909
0.68357742 0.067483336 0.25912797 5331288
0.68349749 0.069448441 0.25902909 5331288
0.68341756 0.071413517 0.25893021 5199702
0.6832608 0.073778838 0.25780249 5397081
0.68318075 0.075746268 0.25770348 5264980
0.68302363 0.078118622 0.25657541 5396566
0.68294352 0.080088437 0.25647628 5462359
0.68278617 0.082467824 0.25534791 5593945
0.68255121 0.085263968 0.25318986 5528154
0.68239331 0.087655216 0.25206083 5528154
0.6822353 0.090051174 0.25093156 5396568
0.68207705 0.092451841 0.24980211 5528154
0.68191862 0.094857275 0.24867237 5528154
0.68175995 0.097267389 0.24754238 5396568
0.68167907 0.099256098 0.24744231 5528154
0.68152016 0.10167331 0.24631196 5396568
0.68143916 0.1036644 0.24621177 5528154
0.68135816 0.10565546 0.24611157 5462361
0.68112051 0.10851768 0.24395025 5593947
0.70417321 -0.3991552 0.27670783 4478807
0.70409274 -0.39717591 0.27660829 4610393
0.70401222 -0.39519668 0.27650869 4544600
0.70393169 -0.39321738 0.27640909 4610393
0.70385122 -0.39123815 0.27630949 4610393
0.70371878 -0.38941365 0.27520913 4544600
0.70363814 -0.38743204 0.27510941 4610393
0.7035054 -0.38560045 0.27400881 4610393
0.70342469 -0.38361648 0.27390897 4610393
0.70334399 -0.38163251 0.27380913 4807772
0.70321089 -0.37979144 0.272708 4676186
0.70313013 -0.37780511 0.27260804 4807772
0.7030493 -0.37581876 0.27250808 4676186
0.70296854 -0.3738324 0.27240813 4873565
0.70288771 -0.37184608 0.27230817 4938845
0.70280695 -0.36985973 0.27220821 4873052
0.70272613 -0.36787337 0.27210832 4938845
0.70264536 -0.36588705 0.27200836 4938845
0.7025646 -0.36390069 0.2719084 4873052
0.70248377 -0.36191434 0.27180845 4873052
0.70240301 -0.35992801 0.27170849 4873819
0.70226872 -0.35805863 0.27060592 4873052
0.70218784 -0.35606992 0.27050585 4741466
0.70210695 -0.35408121 0.27040577 4741466
0.70197225 -0.35220242 0.26930273 4741466
0.70194513 -0.3501038 0.27020562 4675927
0.70186424 -0.34811509 0.27010554 4675927
0.70178336 -0.34612638 0.27000552 4544854
0.70181078 -0.34393677 0.2719124 4544854
0.70178437 -0.34185469 0.27281606 4544854
0.70175809 -0.33977735 0.27372009 4610134
0.70178652 -0.33761138 0.27562815 4544341
0.70170617 -0.33563682 0.27552879 4281167
0.70173514 -0.33348501 0.27743745 4215374
0.70170975 -0.33142895 0.27834255 4149581
0.70168459 -0.32937756 0.27924782 4017995
0.70154971 -0.32749403 0.27814454 4017223
0.70163476 -0.32528901 0.28105909 3885637
0.70177549 -0.32302129 0.28497905 3885637
0.70180655 -0.32092145 0.28689039 4214088
0.70194864 -0.31868684 0.29081196 4279881
0.70203608 -0.31654084 0.29372954 4279881
0.70206863 -0.31447643 0.29564267 4214602
0.70204592 -0.31248647 0.29655105 4148809
0.70202339 -0.31050122 0.29745972 4214602
0.70188951 -0.30864131 0.29635757 4214602
0.70169955 -0.30683461 0.29424965 4148809
0.70145321 -0.30507404 0.29113549 4083269
0.70126235 -0.30324608 0.28902656 4017476
0.701015 -0.30145949 0.28591108 3885890
0.70076704 -0.29965878 0.28279495 4016962
0.70057482 -0.29779774 0.28068435 3819583
0.70055163 -0.29579598 0.28159207 3819583
0.70064181 -0.29371613 0.28451294 3753277
0.70078915 -0.2916114 0.28844112 3621689
0.70093727 -0.2895256 0.2923702 3424310
0.70114303 -0.28742436 0.29730701 3358517
0.70129281 -0.28537869 0.30123812 3030065
0.70150036 -0.2833223 0.3061772 3030065
0.70159465 -0.28134403 0.30910313 3095599
0.70180392 -0.27933016 0.31404436 3161392
0.70201421 -0.27733994 0.31898677 3424562
0.70211059 -0.27541363 0.32191533 3622193
0.70209253 -0.27353704 0.32282943 5989706
0.70207465 -0.27166516 0.32374376 7239773
0.70205688 -0.26979804 0.32465827 10531212
0.70203942 -0.2679356 0.32557309 12573103
0.70202208 -0.26607791 0.32648808 12704689
0.70200497 -0.26422495 0.32740337 13232316
0.70192993 -0.2623803 0.32731056 13234113
0.70185488 -0.26053569 0.32721776 13497285
0.7017799 -0.25869104 0.32712495 13760457
0.70170486 -0.25684643 0.32703215 14024397
0.70168829 -0.25500762 0.32794815 14090189
0.70167196 -0.25317353 0.32886434 14483412
0.70171446 -0.25135475 0.33078986 14548949
0.7016986 -0.24953249 0.3317067 14876638
0.70174176 -0.24773023 0.33363301 15466469
0.70178533 -0.24593742 0.33555979 15990764
0.70188832 -0.24417406 0.33849657 16056301
0.70193279 -0.24240251 0.34042448 16187379
0.70203686 -0.24066514 0.34336257 16252919
0.70208216 -0.23891485 0.34529155 16252919
0.7020089 -0.23711509 0.34520096 16252919
0.70193571 -0.23531532 0.34511042 16383993
0.70180291 -0.23348139 0.34400958 16318456
0.70166987 -0.23164272 0.34290856 16187382
0.70159644 -0.22983825 0.34281778 15925234
0.70140326 -0.22795124 0.34070581 15531501
0.70126963 -0.22609842 0.33960414 15335405
0.70113581 -0.22424085 0.33850211 15335405
0.70106202 -0.22242692 0.33841085 15138794
0.70098829 -0.220613 0.33831954 15007717
0.7009145 -0.21879907 0.33822829 14876639
0.70084071 -0.21698514 0.33813703 14876639
0.70082754 -0.21522902 0.33905721 14745567
0.70075387 -0.21341744 0.33896601 14745565
0.70074093 -0.2116684 0.33988649 14745565
0.70060647 -0.20979431 0.33878374 14680028
0.70053279 -0.20798273 0.33869255 14417622
0.70052016 -0.20624077 0.33961338 12508855
0.70044661 -0.20443158 0.33952236 13035199
0.70037299 -0.20262238 0.33943129 13561543
0.70029944 -0.20081316 0.33934027 12903613
0.70022583 -0.19900396 0.33924925 11785132
0.70015228 -0.19719476 0.33915818 13100992
0.70007867 -0.19538555 0.33906716 13035969
0.7000668 -0.19366248 0.33998895 13431242
0.70017886 -0.19212113 0.34293699 12839105
0.70022953 -0.19050311 0.34487253 12575166
0.70040464 -0.18908097 0.34883499 12772799
0.70051843 -0.18758217 0.35178518 13430729
0.70063275 -0.1860975 0.35473591 13035971
0.70074767 -0.18462703 0.35768747 12510138
0.70080078 -0.18306804 0.359626 12707517
0.70091677 -0.18162353 0.36257887 13891278
0.70090806 -0.17997843 0.36350459 13759692
0.7008996 -0.17833804 0.36443061 13628621
0.70082849 -0.17659023 0.36434263 13235146
0.70082033 -0.17495692 0.36526901 14155735
0.70074934 -0.17321149 0.36518115 14286809
0.70067835 -0.17146605 0.36509335 13366219
0.70073372 -0.16996375 0.36703473 13365449
0.70066291 -0.16822302 0.36694717 14087887
0.70071888 -0.16673493 0.36888933 14022094
0.70071173 -0.16512759 0.3698169 12705209
0.70070481 -0.16352496 0.37074476 12572340
0.70069802 -0.16192707 0.37167287 12111017
0.70069152 -0.1603339 0.37260127 11716259
0.70068514 -0.1587455 0.37352985 11190167
0.70067894 -0.15716179 0.37445861 10861200
0.70067298 -0.15558279 0.37538773 10729614
0.7006672 -0.15400851 0.37631696 10795407
0.7006616 -0.15243897 0.3772465 11519134
0.70072055 -0.15102407 0.37919229 12505250
0.70071542 -0.14946632 0.38012248 12505250
0.70071048 -0.14791331 0.38105279 12965283
0.70077038 -0.14652205 0.38299984 13096867
0.70076597 -0.14498083 0.3839308 13031074
0.70082653 -0.14360608 0.38587862 13096867
0.70088744 -0.14224076 0.38782692 13163430
0.70094883 -0.14088491 0.38977569 13295529
0.70094544 -0.1393697 0.39070803 13295531
0.70094222 -0.1378592 0.39164054 13361324
0.70093924 -0.13635342 0.39257324 13361840
0.70100182 -0.13502826 0.39452362 11913626
0.70099926 -0.13353431 0.39545697 10533509
0.70099694 -0.13204506 0.3963905 10599302
0.70099485 -0.13056055 0.39732432 10204542
0.70099288 -0.12908076 0.39825833 10269567
0.70092523 -0.127418 0.39817464 12769449
0.70092356 -0.12594528 0.39910907 13164207
0.70092213 -0.1244773 0.40004373 13228975
0.70085466 -0.12281926 0.39996034 9874559
0.70078725 -0.12116121 0.39987689 10203524
0.70071983 -0.11950317 0.39979345 10599052
0.70071882 -0.118047 0.40072864 11125142
0.70065147 -0.11639133 0.40064538 10664593
0.70051748 -0.11452903 0.39954317 10598800
0.70045006 -0.11287099 0.39945972 12572338
0.70044947 -0.11142427 0.40039539 13559485
0.70031518 -0.1095549 0.39929289 13822909
0.70031476 -0.1081129 0.4002288 13888702
0.70018029 -0.10623883 0.39912605 13888702
0.70011282 -0.10458076 0.39904261 13953725
0.70011276 -0.10314587 0.39997888 14019518
0.70004541 -0.10149017 0.39989555 13822137
0.69997805 -0.099834502 0.39981222 14019004
0.69997835 -0.098409027 0.40074903 14278079
0.69997877 -0.096988276 0.40168601 12501668
0.69997942 -0.095572278 0.40262336 13686453
0.70004815 -0.09439826 0.40458131 13491116
0.70004928 -0.092994064 0.40551913 12962469
0.70005059 -0.091594577 0.40645719 11843988
0.70005214 -0.090199813 0.40739554 13095584
0.70012212 -0.089056492 0.40935504 12899727
0.70005572 -0.087424457 0.40927291 12702602
0.69998932 -0.085792363 0.40919077 13557911
0.69999152 -0.084414154 0.4101299 12175234
0.69992524 -0.082784444 0.41004789 12240257
0.69985896 -0.081154749 0.40996587 11977339
0.69979268 -0.079525054 0.40988392 11911546
0.69965744 -0.07763207 0.40878016 11911287
0.69959104 -0.076000005 0.40869802 11582833
0.69938636 -0.073831931 0.40657198 11582833
0.69925058 -0.071924806 0.40546745 11582831
0.69911456 -0.070012897 0.40436274 11517038
0.69897836 -0.06809628 0.40325785 11319659
0.69870293 -0.065620065 0.40010762 11122280
0.6984269 -0.063129663 0.39695686 10925673
0.69815028 -0.060625076 0.39380533 11058029
0.69787312 -0.058106348 0.39065301 10860650
0.69759536 -0.055573434 0.38750005 10794603
0.69738704 -0.05331558 0.38536942 10794603
0.69710821 -0.050756723 0.38221514 11057775
0.69682884 -0.048183635 0.37906015 11254384
0.69661915 -0.045892745 0.37692791 11320177
0.69640917 -0.043592393 0.37479508 11977337
0.69612825 -0.040981561 0.37163818 11911544
0.69584674 -0.038356528 0.36848056 11977080
0.69563532 -0.03602314 0.36634618 11779701
0.69535279 -0.033372089 0.36318725 11648115
0.69506961 -0.030706942 0.36002761 11779701
0.69471496 -0.02771467 0.35584301 11911287
0.69450164 -0.02533403 0.35370624 11977080
0.69421679 -0.02262634 0.35054445 11911287
0.69393134 -0.019904479 0.34738195 11779955
0.6935026 -0.016523823 0.34216934 11582576
0.69321585 -0.013768837 0.33900517 11582576
0.69285697 -0.010672718 0.33481532 11450988
0.69235396 -0.0068988204 0.32857442 11450986
0.69199336 -0.003760159 0.32438242 11122021
0.69148827 6.5714121e-05 0.3181389 10661727
0.69076627 0.0049293637 0.30881757 10991462
0.69011456 0.0094967484 0.3005197 11320427
0.68953341 0.013760656 0.29324555 11779951
0.68887872 0.018401206 0.284944 11582576
0.68829483 0.022733599 0.27766645 11845748
0.68770957 0.027099013 0.27038723 6317630
0.68719548 0.031146884 0.2641325 5857881
0.68689799 0.034163982 0.26095515 5332058
0.68659997 0.037195295 0.25777709 5397851
0.68637419 0.039882958 0.25562489 5200472
0.68622088 0.042219996 0.25449872 5397849
0.6860674 0.044561744 0.25337237 5332056
0.68591374 0.04690823 0.25224584 5332056
0.68575984 0.049259365 0.25111902 5332056
0.68567908 0.051245749 0.25101906 5528665
0.68559825 0.053232074 0.2509191 5462872
0.68559092 0.054844141 0.25184655 5397079
0.68551022 0.056828141 0.25174671 5332309
0.68550318 0.058433115 0.2526744 5200723
0.68549633 0.060033321 0.25360245 5266516
0.68548971 0.061628848 0.25453067 5332309
0.68540931 0.063605726 0.25443119 5332056
0.68540293 0.06519416 0.25535977 5266263
0.68539679 0.066777915 0.25628859 5199702
0.68531656 0.068750083 0.25618935 5199702
0.68531066 0.070326746 0.25711846 5133909
0.68523055 0.07229656 0.25701934 5133909
0.68515044 0.074266315 0.25692022 5199702
0.68507034 0.076236129 0.2568211 5199702
0.68491548 0.078610986 0.25569314 5397081
0.68483526 0.080583155 0.2555939 5462874
0.68460524 0.083374709 0.25343645 5397081
0.68444979 0.085763723 0.25230771 5462361
0.68429422 0.088157415 0.25117874 5593947
0.68413842 0.090555847 0.25004959 5462361
0.68398243 0.092958987 0.24892014 5264982
0.68382627 0.095366895 0.24779046 5528154
0.68366987 0.097779453 0.24666053 5528154
0.68358886 0.099770576 0.24656034 5593177
0.68335652 0.10261884 0.24440008 5527382
0.6832754 0.10461465 0.24429965 5462359
0.68319422 0.10661039 0.24419922 5659738
0.68303704 0.10904193 0.24306834 5857117
0.70614916 -0.3990674 0.27685517 4478807
0.70606869 -0.39708814 0.27675557 4544600
0.70598817 -0.39510888 0.27665597 4478807
0.7059077 -0.39312962 0.27655637 4676186
0.70582718 -0.39115036 0.27645683 4610393
0.70569706 -0.38932577 0.27535665 4544600
0.70561647 -0.38734415 0.27525693 4544600
0.70548612 -0.38551247 0.27415651 4610393
0.70540541 -0.38352847 0.27405667 4609880
0.7052747 -0.3816897 0.27295578 4610393
0.70519394 -0.37970334 0.27285582 4610393
0.70511317 -0.37771702 0.27275586 4807772
0.70503235 -0.37573066 0.2726559 4676186
0.70495158 -0.37374431 0.27255601 4873565
0.70487076 -0.37175798 0.27245605 4873052
0.70473945 -0.3699027 0.27135432 4873052
0.70465857 -0.36791399 0.27125424 4938845
0.70462841 -0.36579895 0.27215618 4938845
0.70454758 -0.3638126 0.27205622 4873052
0.70441586 -0.36194786 0.27095407 4873052
0.70433497 -0.35995916 0.270854 4873306
0.70425409 -0.35797045 0.27075392 4741466
0.70412201 -0.35609624 0.26965129 4741466
0.704041 -0.35410517 0.2695511 4741466
0.70396 -0.35211411 0.2694509 4741466
0.70387906 -0.35012305 0.26935071 4741720
0.70384967 -0.34802687 0.2702536 4610134
0.70382047 -0.34593546 0.27115673 4544854
0.7037915 -0.34384876 0.27206004 4610647
0.70376271 -0.34176683 0.27296358 4544854
0.70378608 -0.33959395 0.27487093 4610134
0.70375776 -0.33752379 0.27577513 4544341
0.70372963 -0.33545834 0.27667946 4281167
0.70370167 -0.33339766 0.27758408 4215374
0.70367396 -0.33134168 0.27848899 4149581
0.70364642 -0.32929039 0.27939409 4083788
0.70367157 -0.32716241 0.28130364 3885637
0.70385516 -0.32480663 0.28622675 4017223
0.70414525 -0.32232097 0.29315996 4017223
0.70427811 -0.32009149 0.29708111 4214088
0.70446467 -0.31780893 0.30200791 4279881
0.70459914 -0.31561959 0.30593103 4279881
0.70468122 -0.31351644 0.30885017 4280134
0.70465744 -0.31155729 0.30975991 4214341
0.70463383 -0.30960286 0.31066996 4411459
0.70455694 -0.30771336 0.31057489 4411459
0.70437306 -0.3059395 0.30846894 4475967
0.70402789 -0.3043226 0.30334592 4343609
0.70378917 -0.30257589 0.30023307 4277816
0.70344228 -0.30091649 0.29510796 4409656
0.70314837 -0.2991851 0.29098749 4410174
0.70285362 -0.29743478 0.28686613 4015929
0.70272046 -0.29553461 0.28576219 4015929
0.70269549 -0.29354712 0.28667051 3884345
0.70277935 -0.29148647 0.28959179 3752759
0.70291811 -0.28940344 0.29352027 3424564
0.70305771 -0.2873393 0.29744977 3424564
0.70319808 -0.28529403 0.30138016 3161392
0.70333916 -0.28326768 0.3053115 3095599
0.70348102 -0.28126022 0.3092438 3029804
0.70362365 -0.27927166 0.31317699 3161390
0.70382202 -0.27727959 0.31811845 3358767
0.70391124 -0.27535123 0.32104635 3490607
0.70394588 -0.2734547 0.32296759 4674613
0.70387036 -0.27159825 0.32287419 5924680
0.70390558 -0.26971591 0.32479614 7307351
0.70388567 -0.26785359 0.32571077 11848095
0.703866 -0.26599601 0.32662559 12900783
0.70384651 -0.26414314 0.3275407 12967859
0.70377153 -0.26229849 0.32744789 12771763
0.70369649 -0.26045388 0.32735503 13167805
0.70362145 -0.25860924 0.32726222 13496770
0.7035464 -0.25676459 0.32716942 13629893
0.70352751 -0.25492591 0.32808524 13893576
0.70350879 -0.25309193 0.32900125 13959113
0.70354658 -0.25127336 0.33092642 14090187
0.70358479 -0.24946423 0.33285207 14417871
0.70356685 -0.24764915 0.33376908 14548949
0.70360565 -0.24585655 0.33569551 14876635
0.70370162 -0.24409351 0.33863175 14942172
0.70374131 -0.24232216 0.34055936 15400933
0.70383829 -0.2405851 0.34349686 15663080
0.70387888 -0.23883502 0.34542549 15597545
0.70380569 -0.23703527 0.34533495 15532008
0.70373249 -0.23523551 0.34524435 15532010
0.70360202 -0.23340146 0.34414375 15269860
0.70347136 -0.2315627 0.34304285 15204323
0.70334047 -0.22971921 0.34194177 15073251
0.7032094 -0.227871 0.34084046 15007712
0.70307821 -0.22601807 0.33973897 14942176
0.70294672 -0.2241604 0.33863711 14942176
0.70287299 -0.22234648 0.33854586 14613979
0.7027992 -0.22053255 0.3384546 14417622
0.70272541 -0.21871862 0.33836329 14417622
0.70265162 -0.21690468 0.33827204 14286036
0.70263606 -0.21514867 0.33919203 14154963
0.70256239 -0.21333709 0.33910084 12837308
0.70254713 -0.21158814 0.34002113 12047792
0.70241505 -0.20971397 0.33891857 12771513
0.70234138 -0.20790239 0.33882743 13496004
0.70232636 -0.20616053 0.33974802 13627336
0.70225281 -0.20435134 0.33965701 12443062
0.70217919 -0.20254213 0.33956599 12837820
0.70210564 -0.20073292 0.33947492 13232318
0.70203203 -0.19892371 0.3393839 13298625
0.70195842 -0.19711451 0.33929288 14153934
0.70188487 -0.19530532 0.33920181 13364418
0.70187068 -0.19358234 0.34012341 12114867
0.70197564 -0.19204132 0.34307092 13299141
0.7021873 -0.18900177 0.34896791 12837822
0.70235378 -0.18759897 0.35293067 12837822
0.70246112 -0.18611699 0.35588104 12837822
0.70256907 -0.1846492 0.35883218 13299141
0.70255744 -0.18299 0.35975701 13233348
0.70266634 -0.18154581 0.36270928 12179890
0.70265532 -0.1799008 0.36363488 12179890
0.70264447 -0.17826052 0.36456066 13760205
0.70257342 -0.17651272 0.36447275 13760723
0.70256287 -0.17487949 0.36539888 12313531
0.70249188 -0.17313407 0.36531109 12708289
0.70242089 -0.17138864 0.36522323 13695436
0.70247155 -0.16988654 0.36716431 14483413
0.70240074 -0.16814584 0.36707669 14483411
0.70239097 -0.16653153 0.36800379 14352081
0.70244247 -0.1650507 0.36994594 13166012
0.70243317 -0.16344817 0.37087363 12638133
0.70236278 -0.16171691 0.37078649 12177064
0.70235378 -0.1601215 0.37171459 11848099
0.70240647 -0.15866902 0.37365818 11519130
0.70233631 -0.15694486 0.3735714 10861200
0.70232791 -0.15536359 0.37450016 10729614
0.70238143 -0.15393233 0.37644476 10598028
0.70237345 -0.15236291 0.37737411 11715999
0.70242769 -0.15094823 0.37931961 12767652
0.70248228 -0.14954296 0.38126552 12899238
0.70247513 -0.14799243 0.38219589 12964770
0.70253038 -0.1466037 0.38414264 13096354
0.70252371 -0.14506498 0.38507354 13096867
0.70257962 -0.14369282 0.38702118 13228453
0.70257342 -0.14216587 0.38795263 13163430
0.70263004 -0.14081021 0.38990104 13295016
0.70262426 -0.1392951 0.3908332 13360809
0.70261872 -0.13778472 0.39176553 13295016
0.70261335 -0.13627905 0.39269805 13229738
0.70267123 -0.13495409 0.39464808 9940090
0.70266634 -0.13346024 0.39558125 9743993
0.70266169 -0.13197112 0.39651459 9875579
0.70265716 -0.1304867 0.39744824 9875831
0.70265287 -0.12900701 0.39838207 10203772
0.70258522 -0.12734425 0.39829844 13032875
0.70258123 -0.12587164 0.39923269 13164461
0.70251369 -0.12421124 0.39914912 13294766
0.70244616 -0.12255083 0.39906555 9874559
0.70244253 -0.12108767 0.40000027 10203524
0.70237511 -0.11942963 0.39991689 10270087
0.70230764 -0.11777158 0.39983344 10006661
0.70224023 -0.11611356 0.39974999 9348483
0.70217276 -0.11445549 0.39966661 9282690
0.70210534 -0.11279745 0.39958316 9480330
0.70203787 -0.1111394 0.39949971 10993306
0.70197046 -0.10948136 0.39941633 13689785
0.70190299 -0.10782331 0.39933288 14084543
0.70183557 -0.10616529 0.39924943 13953725
0.70176816 -0.10450722 0.39916599 13821623
0.70170069 -0.10284919 0.3990826 14019002
0.70163327 -0.10119113 0.39899915 13953209
0.7015658 -0.099533096 0.39891571 14084282
0.70156366 -0.098105401 0.39985216 14081979
0.7014963 -0.096449703 0.39976883 14280643
0.7014944 -0.095029056 0.4007057 11383444
0.70149267 -0.093613133 0.40164274 13556403
0.7015568 -0.092441708 0.40360051 13029291
0.70155555 -0.091037601 0.40453821 11845017
0.70162034 -0.089882731 0.40649676 13161629
0.70161963 -0.088490412 0.407435 13097358
0.70161903 -0.087102845 0.40837348 13228428
0.70161867 -0.085720003 0.40931225 13623186
0.70155227 -0.084087938 0.40923011 12372613
0.70148593 -0.082455873 0.40914804 12109695
0.70148593 -0.081082478 0.41008723 11912316
0.70141965 -0.079452783 0.41000521 11911798
0.70135337 -0.077823073 0.4099232 11846005
0.70122039 -0.075927645 0.40881956 11582831
0.70102042 -0.073759332 0.40669382 11517038
0.70088696 -0.071852103 0.40558946 11254636
0.70068634 -0.06966725 0.40346289 11254638
0.7005524 -0.067748189 0.402358 11188845
0.70028394 -0.065269276 0.39920825 11188845
0.70001489 -0.062776208 0.39605784 11058029
0.6997453 -0.060268968 0.39290667 11058029
0.69947511 -0.057747528 0.38975483 10992236
0.69927186 -0.055498958 0.38762504 11255408
0.69906825 -0.053240895 0.38549477 11255408
0.69879651 -0.05068174 0.38234103 11321201
0.69859207 -0.048402399 0.38020968 11255408
0.69831926 -0.045817226 0.37705463 11583349
0.69811392 -0.043516666 0.37492222 11780728
0.69784009 -0.040905505 0.37176585 11846521
0.69756567 -0.038280174 0.36860871 11911544
0.69742733 -0.036252439 0.3674984 11714165
0.69715196 -0.03360346 0.36434007 11516786
0.69687599 -0.030940294 0.36118108 11779958
0.69653082 -0.027950048 0.35699737 11911541
0.69618493 -0.024940893 0.35281265 12108150
0.695907 -0.022230491 0.34965128 12108150
0.69549078 -0.018865809 0.34444034 11976564
0.69500452 -0.015155077 0.33820373 11910771
0.69465536 -0.012065575 0.33401489 11713392
0.69423622 -0.0086300373 0.32880044 11319409
0.69374686 -0.0048413277 0.32255977 9806170
0.69325632 -0.0010243058 0.31631774 10595686
0.69276464 0.0028210282 0.31007433 10991466
0.69220221 0.0070313215 0.30280417 11123052
0.69156879 0.011613697 0.29450697 11188845
0.69107336 0.015551209 0.28825891 11452017
0.69050688 0.019860685 0.28098381 11516286
0.68993908 0.024203271 0.27370691 11055735
0.68951005 0.027882069 0.26848018 6515282
0.68908006 0.031584531 0.26325226 5857883
0.68871933 0.034957409 0.25904918 5135192
0.68849856 0.037638277 0.25689775 5266778
0.68827736 0.040328532 0.25474566 5332058
0.68812633 0.042667985 0.25361961 5528665
0.68797511 0.045012206 0.25249338 5528665
0.68782371 0.047361135 0.25136679 5462872
0.68767208 0.049714774 0.25024003 5528665
0.68752027 0.052073151 0.24911302 5528665
0.68743926 0.054064244 0.24901283 5462872
0.68742943 0.055680931 0.2499398 5397079
0.68741971 0.057292849 0.25086707 5398102
0.68733895 0.059279203 0.25076711 5332309
0.68732953 0.060884058 0.25169474 5266516
0.68732035 0.062484205 0.25262249 5266516
0.68723977 0.06446588 0.25252277 5397079
0.68723083 0.066058904 0.25345099 5331286
0.68722212 0.067647219 0.25437939 5331288
0.6872136 0.069230825 0.25530803 5133909
0.68713325 0.071205407 0.25520867 5068116
0.68705297 0.073179901 0.25510937 5068116
0.68697262 0.075154483 0.25501001 5199702
0.68689233 0.077128977 0.25491065 5331288
0.68673968 0.079508632 0.25378257 5397081
0.68665928 0.08148551 0.25368309 5397081
0.68650627 0.083872259 0.25255466 5331288
0.68635315 0.086263716 0.25142592 5462361
0.68619978 0.088659823 0.25029707 5593947
0.68604624 0.091060728 0.24916792 5462361
0.68589252 0.093466371 0.24803853 5199189
0.68573862 0.095876724 0.2469089 5462363
0.68565762 0.097867757 0.24680871 5528156
0.68557668 0.09985888 0.24670851 5593177
0.68534905 0.10270736 0.24454862 5658970
0.68519443 0.10513425 0.24341816 5593945
0.68511319 0.10713238 0.2433176 5725531
0.68503189 0.10913056 0.24321705 5725531
0.70812517 -0.3989796 0.27700251 4280915
0.70804465 -0.39700037 0.27690291 4478294
0.70796418 -0.39502111 0.27680331 4478807
0.70788366 -0.39304185 0.27670372 4610393
0.70780313 -0.39106259 0.27660412 4610393
0.7076754 -0.38923788 0.27550417 4544600
0.70759481 -0.38725626 0.27540445 4478807
0.70751423 -0.38527465 0.27530473 4544600
0.70738608 -0.38344049 0.27420431 4610393
0.70725781 -0.3816016 0.27310365 4741720
0.70717698 -0.37961525 0.2730037 4610647
0.70709622 -0.37762892 0.27290374 4676440
0.7070154 -0.37564257 0.27280378 4676186
0.70688659 -0.3737919 0.27170247 4807772
0.70680571 -0.37180319 0.27160245 4807772
0.70672482 -0.36981449 0.27150238 4873565
0.70664394 -0.36782578 0.2714023 4938845
0.70656306 -0.36583707 0.27130222 4938845
0.70648217 -0.36384836 0.27120215 4938845
0.70640129 -0.36185965 0.27110207 4939099
0.70627171 -0.35999006 0.26999986 4939099
0.70619076 -0.35799903 0.26989967 4939099
0.70601201 -0.35623676 0.26779479 4741720
0.70593083 -0.35424095 0.26769435 4741466
0.70594776 -0.35202581 0.26959908 4873306
0.70586681 -0.35003471 0.26949888 4676440
0.70583504 -0.34793869 0.2704016 4610647
0.70580351 -0.34584737 0.27130455 4544854
0.70577216 -0.34376079 0.27220774 4675927
0.70574105 -0.34167892 0.27311105 4610134
0.7057597 -0.33950627 0.2750181 4610134
0.70577872 -0.33734307 0.2769255 4609364
0.70574832 -0.33528012 0.27782983 4280397
0.70576805 -0.33313343 0.27973813 4346190
0.7058382 -0.33091015 0.28265071 4280397
0.70595902 -0.3286173 0.28656787 4214604
0.70623124 -0.32609934 0.29349822 3885637
0.70650482 -0.32361442 0.30043018 3885637
0.70683008 -0.32108599 0.30836815 3819844
0.70705593 -0.31874382 0.31429917 4148295
0.70728296 -0.31643003 0.32023168 4279881
0.7074604 -0.31421411 0.32516086 4280134
0.70748645 -0.31222332 0.32707697 4280134
0.70608443 -0.30012214 0.30932957 5393178
0.70559508 -0.2986165 0.30118865 4276514
0.70510411 -0.29707307 0.29304582 4146230
0.70492214 -0.29523051 0.29093683 4212023
0.70473981 -0.29337853 0.28882736 3884345
0.70471287 -0.29140058 0.28973591 3752759
0.70484221 -0.28931797 0.29366374 3621173
0.70492023 -0.28728834 0.2965861 3621173
0.70505106 -0.28524116 0.30051565 3423792
0.70518261 -0.28321284 0.30444616 3161390
0.70531493 -0.28120345 0.30837762 3095597
0.7055006 -0.27918828 0.31331694 3161390
0.70563459 -0.27721903 0.31725049 3358767
0.7057693 -0.27526867 0.32118487 3424814
0.70579922 -0.27337235 0.32310581 4411187
0.7057237 -0.27151591 0.32301235 5398082
0.70570123 -0.26964661 0.32392651 7175767
0.70567888 -0.26778206 0.32484078 10136963
0.70565677 -0.26592222 0.32575536 12834476
0.70563483 -0.26406708 0.32667011 12836014
0.70561308 -0.26221669 0.32758516 12836273
0.70553803 -0.26037204 0.32749236 13034935
0.70546305 -0.25852743 0.32739955 13627072
0.70538801 -0.25668278 0.32730675 13365951
0.70531297 -0.25483817 0.32721388 13431742
0.70534563 -0.25301033 0.32913822 14155465
0.70537871 -0.25119197 0.33106303 14221258
0.70535815 -0.24936992 0.33197951 14221258
0.70539188 -0.24756807 0.33390516 14286797
0.70542604 -0.24577568 0.33583122 14483410
0.70546055 -0.24399275 0.33775777 14614484
0.70549548 -0.24221924 0.33968484 14811096
0.70563978 -0.24050507 0.34363115 14876633
0.70567566 -0.2387552 0.34555948 14876635
0.70560247 -0.23695545 0.34546888 14876635
0.70547444 -0.23512366 0.34436858 14811098
0.70540112 -0.23332155 0.34427786 14745561
0.70527279 -0.23148267 0.3431772 14811098
0.70514435 -0.22963907 0.34207624 14811098
0.7050156 -0.22779077 0.34097511 14811098
0.70488673 -0.22593772 0.33987379 14745561
0.70475763 -0.22407997 0.33877212 14548438
0.7046839 -0.22226603 0.33868086 14286290
0.70461011 -0.2204521 0.33858961 14286803
0.70453632 -0.21863818 0.33849829 14417877
0.70446253 -0.21682423 0.33840704 13298371
0.70444465 -0.21506833 0.33932686 12969406
0.70437098 -0.21325675 0.33923572 12443064
0.7042973 -0.21144518 0.33914453 13561545
0.70422357 -0.20963362 0.33905339 13824715
0.7041499 -0.20782204 0.33896226 13035199
0.704059 -0.20427111 0.33979166 12508855
0.70398539 -0.2024619 0.33970064 13429957
0.70391184 -0.20065269 0.33960962 12837560
0.70383823 -0.19884348 0.33951855 11587753
0.70376468 -0.19703427 0.33942753 12443062
0.70369107 -0.19522507 0.33933651 12837820
0.70373154 -0.19358855 0.34127045 13561543
0.70392811 -0.19052604 0.34716529 12969406
0.70418435 -0.18761601 0.35407585 12114097
0.70428473 -0.18613669 0.35702586 11719339
0.70432812 -0.18457106 0.35896331 12904385
0.70437181 -0.18301485 0.36090136 12772799
0.70441598 -0.18146808 0.36283976 12509627
0.7044605 -0.17993079 0.3647787 12575420
0.70438939 -0.178183 0.36469078 12839103
0.70431828 -0.1764352 0.3646028 13760457
0.70430541 -0.17480209 0.36552882 14417873
0.70423442 -0.17305666 0.36544096 14352336
0.70422179 -0.17143065 0.36636728 14417871
0.70415086 -0.16968757 0.3662796 14548945
0.70413858 -0.16806865 0.36720628 14286797
0.70406777 -0.16632792 0.36711872 13892295
0.7041145 -0.16484496 0.3690604 12969144
0.70410269 -0.16324018 0.36998779 12769971
0.70409113 -0.16164012 0.37091535 12308648
0.70407981 -0.16004482 0.37184328 11979683
0.7040686 -0.15845424 0.37277138 11650716
0.70405763 -0.15686838 0.37369972 11189905
0.70410615 -0.15543027 0.37564367 10926733
0.70415509 -0.15400159 0.37758803 10860940
0.70408535 -0.15228686 0.37750179 11320726
0.70419449 -0.15102249 0.38046259 12636320
0.70418477 -0.14946732 0.38139242 12833699
0.70423502 -0.14807175 0.38333857 12899488
0.70422578 -0.14652839 0.38426906 13097121
0.70427668 -0.14514934 0.38621593 13031328
0.70426792 -0.14361781 0.38714707 13228707
0.70431954 -0.14225526 0.38909477 13294500
0.70431125 -0.14073552 0.39002639 13229477
0.70430315 -0.13922052 0.39095837 13031326
0.70429528 -0.13771024 0.39189053 12570775
0.70428753 -0.13620467 0.39282286 11978123
0.70428002 -0.13470383 0.3937555 11715468
0.70433342 -0.13338618 0.39570552 9939825
0.70426553 -0.13171633 0.39562154 10071411
0.70425856 -0.13022965 0.39655483 9808752
0.70425183 -0.12874773 0.39748842 10006131
0.70424527 -0.1272705 0.39842218 10137717
0.70417762 -0.12560773 0.3983385 9874545
0.70417136 -0.1241376 0.39927274 9873780
0.70410383 -0.12247719 0.39918917 10201725
0.70409781 -0.12101415 0.40012372 12043929
0.70403039 -0.11935611 0.40004027 12307873
0.70396292 -0.11769806 0.39995688 10333579
0.70389551 -0.11604004 0.39987344 9281154
0.7038281 -0.11438197 0.39978999 9017982
0.70369858 -0.11251476 0.3986879 9676428
0.70363104 -0.11085434 0.39860433 10532755
0.70362574 -0.10940784 0.39953971 14150590
0.70349598 -0.10753353 0.3984372 14019004
0.70342845 -0.10587314 0.3983537 14019002
0.70329839 -0.10399173 0.39725083 13756084
0.7032308 -0.10232897 0.39716721 13756084
0.70316315 -0.1006662 0.39708352 14017467
0.70315832 -0.099231511 0.39801949 14608591
0.70315367 -0.097801536 0.3989557 13951424
0.70308626 -0.096143484 0.39887226 14214596
0.70308191 -0.094720602 0.39980876 11319445
0.70307773 -0.093302399 0.40074557 13753012
0.70307374 -0.091888949 0.40168256 12700324
0.70313334 -0.090722471 0.40364021 12042394
0.70319331 -0.089565426 0.40559828 13227420
0.70319009 -0.088170871 0.40653628 13294221
0.70318711 -0.08678107 0.40747452 13294217
0.70318431 -0.085395932 0.40841293 13623182
0.70318162 -0.084015548 0.40935159 12242051
0.70311528 -0.082383484 0.40926951 12175488
0.70311296 -0.081010193 0.41020852 11912316
0.70298249 -0.079119384 0.40910524 11780982
0.70291615 -0.07748729 0.40902311 11846005
0.70278543 -0.075589404 0.40791947 11582833
0.70259011 -0.073418528 0.40579396 11582833
0.70245892 -0.07150881 0.40468967 11714419
0.70232749 -0.069594353 0.40358526 11583351
0.70213121 -0.067399889 0.40145856 11583349
0.70193452 -0.065195948 0.39933133 11385970
0.70167255 -0.062702566 0.3961814 11189361
0.70134503 -0.059912607 0.39200848 11321201
0.7011469 -0.057673261 0.38987947 11123822
0.70094836 -0.055424452 0.38775003 11255408
0.70074952 -0.053166211 0.38562012 11255408
0.70048481 -0.050606728 0.38246691 11255408
0.70035058 -0.048621401 0.38135886 11255408
0.70015055 -0.046334818 0.37922752 11452017
0.69988441 -0.043739855 0.37607247 11715189
0.69961774 -0.041130722 0.37291676 11846775
0.69948226 -0.039114743 0.37180716 11911798
0.69914865 -0.036175966 0.36762679 11714419
0.69888031 -0.033526659 0.36446893 11582833
0.69841295 -0.029931083 0.35823917 11714419
0.69801068 -0.026620165 0.35303187 11911541
0.69760746 -0.023285672 0.34782332 11977334
0.69720328 -0.019927546 0.34261364 12173943
0.69679815 -0.016545787 0.3374027 12042103
0.69625878 -0.012495369 0.3301419 11779701
0.6958515 -0.0090616345 0.3249284 11911287
0.69537652 -0.0052770972 0.31868911 9675104
0.69503415 -0.0021233857 0.31449783 10069860
0.69462401 0.0013811588 0.30928075 10464618
0.69407868 0.0055780709 0.3020125 10661995
0.69353199 0.0098079741 0.2947427 11188089
0.69311857 0.013392866 0.28952152 10530159
0.69263685 0.017342776 0.28327388 8424535
0.69215393 0.021320999 0.27702492 7370071
0.69173741 0.024981469 0.27179998 6448969
0.69132 0.028665543 0.26657385 6185815
0.69090158 0.03237322 0.26134658 5660504
0.69055015 0.035751253 0.25714403 5397332
0.69033384 0.038437039 0.2549926 5332569
0.69011718 0.041132212 0.2528407 5463642
0.68996835 0.043476522 0.25171459 5528665
0.68981928 0.045825571 0.25058818 5528665
0.68967003 0.048179358 0.24946159 5528665
0.68958902 0.050170392 0.2493614 5593945
0.68937093 0.05290103 0.24720776 5593945
0.68928975 0.054896832 0.24710739 5462359
0.68920857 0.056892633 0.24700695 5331286
0.68926507 0.058134675 0.24896067 5462872
0.68918407 0.060125709 0.24886048 5462872
0.68917215 0.061735243 0.24978763 5397079
0.68916041 0.063339978 0.25071508 5331286
0.68914884 0.064940065 0.2516427 5331286
0.68906814 0.066924036 0.25154287 5199700
0.68905687 0.06851697 0.25247085 5331288
0.68897629 0.070498586 0.25237113 5199702
0.68896532 0.072084486 0.25329947 5199189
0.68895447 0.073665589 0.25422812 5264982
0.68880427 0.07604298 0.25310034 5331288
0.6887238 0.078022242 0.25300074 5331290
0.68864328 0.080001533 0.25290114 5199704
0.68849266 0.082388341 0.25177288 5199704
0.68834186 0.084779888 0.25064445 5199702
0.68826115 0.086763889 0.25054461 5396570
0.68803972 0.089577168 0.24838668 5264984
0.68795884 0.091565877 0.2482866 5396570
0.68780738 0.093973935 0.24715728 5331290
0.68758506 0.096808493 0.24499846 5397083
0.68750387 0.098804265 0.24489802 5397083
0.68735182 0.10122654 0.24376798 5396568
0.68727058 0.10322469 0.24366742 5528154
0.68718928 0.10522285 0.24356687 5528154
0.68703687 0.10765454 0.24243635 5659740
0.68695545 0.10965508 0.24233568 5659740
0.71005672 -0.3990581 0.27615017 4149329
0.70997614 -0.39707649 0.27605051 4412501
0.70989555 -0.39509487 0.27595079 4413014
0.70985961 -0.39295405 0.27685106 4544600
0.70973432 -0.39113161 0.27575135 4544600
0.70965374 -0.38914999 0.27565163 4413014
0.70957315 -0.38716838 0.27555192 4413014
0.70949256 -0.38518673 0.2754522 4413014
0.7093668 -0.38335252 0.27435201 4675673
0.70924079 -0.38151351 0.27325147 4741720
0.70916003 -0.37952715 0.27315152 4610647
0.70907927 -0.37754083 0.27305156 4676440
0.70899844 -0.37555447 0.2729516 4676440
0.70887202 -0.37370372 0.27185053 4807772
0.70879114 -0.37171501 0.27175045 4873565
0.70866442 -0.36985713 0.27064896 4873565
0.70858341 -0.36786604 0.27054882 5004638
0.70850241 -0.36587498 0.27044863 4939099
0.70842147 -0.36388391 0.27034843 4939099
0.70834047 -0.36189282 0.27024823 4939099
0.70825946 -0.35990179 0.27014804 4939099
0.70808566 -0.35814404 0.26804376 4938845
0.70800447 -0.35614824 0.26794332 4741466
0.70792329 -0.35415244 0.26784289 4741466
0.70793557 -0.35193747 0.26974732 4873052
0.70785457 -0.34994644 0.26964712 4676440
0.70782048 -0.3478505 0.27054965 4610647
0.70773959 -0.34586179 0.27044958 4610647
0.70775288 -0.34367281 0.27235538 4675927
0.70771933 -0.34159106 0.27325857 4610134
0.70773327 -0.33941859 0.2751652 4610134
0.70779502 -0.33716255 0.27807552 4609362
0.7079522 -0.3347393 0.2829935 4214604
0.70806283 -0.33242798 0.28690898 4346190
0.70826954 -0.32996365 0.29283279 4280397
0.70862067 -0.32727686 0.30176932 4017225
0.70882994 -0.32487628 0.30769628 3885637
0.71020681 -0.31093395 0.34529746 4672578
0.71018177 -0.30906004 0.34621108 8749143
0.71010828 -0.30725318 0.34612018 9866823
0.70998609 -0.30550635 0.34502435 10918734
0.70981485 -0.30381238 0.34292316 11445078
0.70667565 -0.29329252 0.28897166 4997655
0.70664638 -0.29131469 0.2898801 4012840
0.70676631 -0.28923249 0.29380721 3883058
0.70683724 -0.28720316 0.29672903 3883058
0.70695865 -0.2851564 0.30065787 3620656
0.70708078 -0.28312853 0.30458766 3555376
0.70715362 -0.28114647 0.30751181 3292204
0.70732737 -0.27912945 0.31245017 3292204
0.70750207 -0.27713606 0.31738973 3489583
0.70762742 -0.27518612 0.32132339 3555630
0.70760214 -0.2733075 0.32223684 4015920
0.70757705 -0.27143359 0.32315058 4739643
0.70755219 -0.26956439 0.32406449 6846032
0.70752752 -0.26769993 0.32497859 8096351
0.70750302 -0.26584017 0.32589298 12570275
0.70752966 -0.26397949 0.32781529 12637863
0.70745462 -0.26213488 0.32772249 12573355
0.70737964 -0.26029024 0.32762969 12902836
0.7073046 -0.25844562 0.32753682 13034422
0.70722955 -0.25660098 0.32744402 13429947
0.70715451 -0.25475633 0.32735121 13298873
0.70718253 -0.25292873 0.32927513 13431996
0.7072109 -0.25111058 0.33119965 13760961
0.70718789 -0.24928862 0.33211595 13827524
0.70721698 -0.24748699 0.33404118 13959110
0.70724636 -0.24569482 0.33596694 14090184
0.70727617 -0.24391207 0.33789313 14090184
0.70730639 -0.24213879 0.33981991 14286795
0.70738912 -0.2404 0.34275621 14221258
0.70742017 -0.23864797 0.34468406 14155721
0.70739925 -0.23687562 0.34560287 14221258
0.70732605 -0.23507586 0.34551227 14155721
0.70714772 -0.23320712 0.34340227 14155721
0.70702165 -0.23136579 0.34230167 14155721
0.70694816 -0.22955894 0.34221071 14024647
0.7068218 -0.22771052 0.34110981 14221262
0.70669532 -0.22585738 0.34000862 14548947
0.7065686 -0.2239995 0.33890718 11326114
0.70649481 -0.22218558 0.33881587 11588007
0.70642102 -0.22037165 0.33872461 12048558
0.70634723 -0.21855772 0.33863336 12706488
0.70627344 -0.2167438 0.33854204 12706234
0.70619965 -0.21492986 0.33845079 12443064
0.7061795 -0.2131764 0.33937055 11325353
0.70610583 -0.21136484 0.33927941 11983283
0.70603216 -0.20955327 0.33918822 13430729
0.70595849 -0.20774169 0.33909708 13496268
0.70588481 -0.20593013 0.33900595 11983283
0.70581108 -0.20411856 0.33891475 12312248
0.70573741 -0.202307 0.33882362 13166273
0.70566374 -0.20049544 0.33873248 13232066
0.70559007 -0.19868387 0.33864129 12574136
0.70546186 -0.19679058 0.33753806 12310964
0.70544267 -0.19506073 0.33845901 12508857
0.70547837 -0.19342208 0.34039241 13824201
0.70604849 -0.18605834 0.35715735 13100992
0.70614237 -0.18459353 0.36010748 12310964
0.70612615 -0.18293691 0.36103213 11916720
0.70616555 -0.18139036 0.36297017 12773051
0.70620537 -0.17985328 0.36490881 13167809
0.70613426 -0.17810549 0.36482084 14417879
0.70611894 -0.17647012 0.36574656 14090188
0.70604789 -0.17472467 0.36565876 14221260
0.7059769 -0.17297925 0.3655709 14221260
0.70596194 -0.17135334 0.36649704 14221260
0.70589107 -0.16961026 0.3664093 14221260
0.70587635 -0.16799143 0.36733586 14155721
0.70580554 -0.16625074 0.36724824 13959110
0.70579118 -0.16463897 0.36817509 12969144
0.70583344 -0.16316329 0.37011677 12901555
0.70581955 -0.16156335 0.37104422 12308648
0.70574909 -0.15983209 0.37095708 12045476
0.70579225 -0.15837768 0.37289989 11716509
0.70577896 -0.15679191 0.37382811 11058579
0.70582277 -0.15535401 0.37577164 10861200
0.70580989 -0.15378004 0.3767004 10729868
0.70585442 -0.1523587 0.37864482 11123347
0.7058993 -0.15094675 0.38058966 12636320
0.7058872 -0.14939168 0.38151938 12767906
0.70593274 -0.14799634 0.38346511 12965022
0.70592111 -0.14645307 0.38439548 13030815
0.70596737 -0.14507423 0.38634199 13096606
0.70601398 -0.14370482 0.38828897 13359778
0.70600313 -0.14218047 0.3892203 13228705
0.70599246 -0.14066084 0.39015174 13031328
0.70598203 -0.13914594 0.39108354 12043916
