# .PCD v0.7 - Point Cloud Data file format
VERSION 0.7
FIELDS x y z
SIZE 4 4 4
TYPE F F F
COUNT 1 1 1
WIDTH 105
HEIGHT 1
VIEWPOINT 0 0 0 1 0 0 0
POINTS 105
DATA ascii
0.77386129 -0.36582381 0.32626075
0.77675802 -0.35085309 0.32216156
0.77771658 -0.33322719 0.32642335
0.74803525 -0.4301241 0.33575004
0.74593943 -0.42439395 0.33255786
0.74569434 -0.41805488 0.33550295
0.74320501 -0.4022274 0.33540177
0.77340651 -0.40380964 0.33494669
0.74382454 -0.39486098 0.33476692
0.77451926 -0.3946012 0.3316856
0.7456854 -0.38458633 0.33752796
0.75687295 -0.38533592 0.33590817
0.77248079 -0.38451844 0.3354713
0.75772071 -0.37535155 0.33580372
0.76650685 -0.37147155 0.33975244
0.77177197 -0.37470451 0.33294562
0.75844014 -0.3686831 0.33766377
0.76947665 -0.36894068 0.33952594
0.77167469 -0.36424568 0.3338502
0.74863523 -0.35388651 0.33320165
0.77233505 -0.35734892 0.33593476
0.77745688 -0.33087081 0.33030838
0.74850047 -0.42330647 0.34510273
0.77003545 -0.42923886 0.344423
0.74738896 -0.41374812 0.34772909
0.74515623 -0.40387845 0.34466568
0.7711094 -0.40404296 0.34482208
0.74638742 -0.39483303 0.34575552
0.75547385 -0.39207196 0.34665632
0.7723453 -0.39453623 0.3413555
0.74788094 -0.38094497 0.341784
0.75342369 -0.38604414 0.34184104
0.76352131 -0.38406608 0.34580767
0.77209932 -0.38817811 0.34063497
0.74572837 -0.37595525 0.34647062
0.75327832 -0.37498525 0.34523278
0.76424408 -0.37539363 0.3443062
0.74745929 -0.36179027 0.34653717
0.75706708 -0.36439079 0.34458503
0.76453358 -0.36546504 0.34542069
0.74874824 -0.35757646 0.34509835
0.75621146 -0.35593009 0.34736177
0.76871938 -0.356536 0.3475841
0.77105922 -0.35442442 0.34297824
0.75188154 -0.34585911 0.34913635
0.77204865 -0.34752145 0.34574041
0.76790369 -0.43096498 0.3594017
0.74949819 -0.4208582 0.3504855
0.75126737 -0.42039651 0.35963571
0.76772255 -0.42520937 0.35694072
0.74926943 -0.41531831 0.35447371
0.76724488 -0.41476718 0.3585867
0.74767762 -0.40579358 0.35632849
0.76775551 -0.40491971 0.35775939
0.74728918 -0.39618531 0.35584524
0.75545651 -0.39542431 0.35476199
0.76387054 -0.39519086 0.3574757
0.77023077 -0.39450595 0.35063004
0.76485592 -0.38361555 0.35542709
0.77000159 -0.38901463 0.35055411
0.74604386 -0.37153172 0.35190865
0.75114137 -0.37220719 0.35032323
0.76555276 -0.37481523 0.35503557
0.74687654 -0.36588168 0.35443112
0.75197047 -0.3648535 0.353782
0.76462978 -0.36463216 0.35273385
0.7542327 -0.35458317 0.35314208
0.76442832 -0.35558778 0.35504594
0.77018815 -0.35049039 0.35075819
0.75520557 -0.34665889 0.35344505
0.76624709 -0.34769276 0.35806948
0.77107114 -0.34411097 0.35253277
0.77121878 -0.33683786 0.35688639
0.75132716 -0.42194501 0.36071742
0.76549637 -0.42200413 0.36983868
0.7525661 -0.41357961 0.3659398
0.76407152 -0.41468841 0.36677366
0.74876899 -0.40320888 0.36365318
0.75537276 -0.40412587 0.36743304
0.76305836 -0.40539747 0.36302093
0.74854153 -0.39763775 0.36437681
0.75636768 -0.39792055 0.3631075
0.76478887 -0.39514667 0.36123744
0.76582462 -0.38570389 0.36127663
0.74329668 -0.36494559 0.36303416
0.74345613 -0.35990041 0.36521792
0.76332504 -0.35145164 0.36165658
0.75699431 -0.3434515 0.36447525
0.76434362 -0.34427601 0.36359534
0.77305245 -0.34385058 0.36421889
0.75137699 -0.33753341 0.3697896
0.76643366 -0.33664399 0.36688554
0.770769 -0.33147174 0.36345959
0.77048498 -0.32823807 0.36780339
0.75137019 -0.42401665 0.37387112
0.7638613 -0.42329803 0.37546402
0.75683796 -0.41460237 0.37599733
0.76168144 -0.41689286 0.37271875
0.75520068 -0.40643725 0.37175718
0.74168074 -0.35847932 0.37405115
0.74963343 -0.33867285 0.37472993
0.75669664 -0.33481199 0.37724066
0.7627759 -0.33402357 0.37317511
0.76639408 -0.3273083 0.37514362
0.77108324 -0.32731935 0.37483415
