# .PCD v0.7 - Point Cloud Data file format
VERSION 0.7
FIELDS x y z
SIZE 4 4 4
TYPE F F F
COUNT 1 1 1
WIDTH 134
HEIGHT 1
VIEWPOINT 0 0 0 1 0 0 0
POINTS 134
DATA ascii
0.60425258 -0.37311068 0.28957364
0.60467851 -0.3662135 0.28685433
0.6087696 -0.35873309 0.28706583
0.61584097 -0.3536942 0.28653333
0.62426567 -0.34715852 0.28452784
0.63519573 -0.34457058 0.28463498
0.64474076 -0.34272993 0.28618115
0.60813987 -0.36159796 0.29418111
0.61468863 -0.35546803 0.29489577
0.62228656 -0.35020077 0.29623359
0.62680471 -0.34725577 0.29543686
0.63545072 -0.34583527 0.29663497
0.64531875 -0.34441054 0.29504833
0.65157789 -0.34092596 0.29536361
0.65686536 -0.33951592 0.29486567
0.66641754 -0.33838794 0.29676381
0.67559665 -0.3364968 0.29565692
0.6857146 -0.33411187 0.29445526
0.69447261 -0.33291134 0.29492646
0.70541817 -0.3319236 0.29531726
0.71210206 -0.33072555 0.29517063
0.71684289 -0.32966772 0.29448006
0.7246021 -0.32909378 0.29705578
0.73457372 -0.32855934 0.2951844
0.74473196 -0.32660547 0.29546922
0.76793081 -0.31785366 0.2964997
0.77132297 -0.31211975 0.29406261
0.77645814 -0.30625486 0.29507589
0.78584576 -0.29557493 0.29464594
0.79644734 -0.28944942 0.29734489
0.60986352 -0.36203426 0.30989647
0.61998546 -0.35287046 0.30521959
0.62259007 -0.35099775 0.3043268
0.62535316 -0.34897733 0.30444324
0.63497174 -0.346412 0.30686674
0.64409983 -0.34594601 0.30513468
0.65336889 -0.34178481 0.30524722
0.66475642 -0.33963621 0.30702269
0.67373461 -0.33813652 0.30630139
0.68512213 -0.33542299 0.30436873
0.69456947 -0.33390298 0.30461952
0.704992 -0.33265308 0.30559373
0.71530122 -0.33054098 0.30410886
0.71920872 -0.32997748 0.30772853
0.72492045 -0.32963017 0.30895323
0.73388618 -0.32913697 0.30630386
0.74418908 -0.3270362 0.30548838
0.75519341 -0.32510811 0.30543762
0.76370525 -0.32198682 0.30473793
0.76827431 -0.31858939 0.30793995
0.77151608 -0.31393716 0.3052077
0.77738756 -0.3062183 0.30638114
0.78115743 -0.30122963 0.30308789
0.78485543 -0.29724199 0.30284843
0.79309833 -0.29139847 0.30579817
0.62321615 -0.35146123 0.31443709
0.62701958 -0.34928 0.31562978
0.63570774 -0.34683213 0.31758583
0.64490026 -0.3463816 0.31510645
0.65397167 -0.34268168 0.31571084
0.66429436 -0.34026638 0.31705743
0.66774887 -0.33998412 0.318313
0.67578524 -0.33852747 0.31517872
0.68498892 -0.33638659 0.31461179
0.69521546 -0.33477688 0.31448302
0.7045604 -0.33341545 0.31520197
0.71386802 -0.33158779 0.31502596
0.72894806 -0.33013684 0.31952715
0.73174441 -0.33013195 0.31873718
0.73725712 -0.32876629 0.31256902
0.74477738 -0.32719213 0.31558126
0.75413132 -0.32571906 0.31723279
0.76254505 -0.32301161 0.31607649
0.7790218 -0.30446327 0.31110907
0.78167713 -0.3013612 0.31267229
0.78437704 -0.29834813 0.3132391
0.79539579 -0.29130834 0.31495625
0.61595535 -0.35762161 0.32521579
0.62422192 -0.35143232 0.32103917
0.62921178 -0.34892896 0.32431558
0.63378459 -0.34716046 0.32474995
0.64582479 -0.34673405 0.3259874
0.65510333 -0.34292284 0.32425967
0.66507071 -0.34066302 0.32818013
0.67237735 -0.34042588 0.32805967
0.67750376 -0.33886376 0.32436273
0.68483776 -0.3370907 0.32450652
0.69500536 -0.33562484 0.32538405
0.70515192 -0.33388442 0.32651472
0.71615237 -0.33165905 0.32624888
0.72709382 -0.33009988 0.32038724
0.73645228 -0.32944548 0.32308182
0.74432468 -0.32754284 0.32485053
0.7587291 -0.32494175 0.32256871
0.76328236 -0.32263154 0.32481679
0.78747708 -0.2963807 0.32442832
0.79763496 -0.29131526 0.32396379
0.61364508 -0.36217484 0.33228195
0.62301582 -0.35327998 0.3362619
0.63489151 -0.34759736 0.33246946
0.64471316 -0.34698629 0.33575377
0.6566208 -0.34269404 0.33365259
0.66519326 -0.34119245 0.33808768
0.67333335 -0.34089759 0.33819565
0.67736888 -0.33959198 0.33308849
0.68470359 -0.33795145 0.33424267
0.69606739 -0.33622956 0.33565399
0.70473427 -0.33460447 0.33570373
0.71374571 -0.33258453 0.33454204
0.72553927 -0.33060917 0.33213988
0.73288989 -0.33046114 0.33122376
0.73753077 -0.32956532 0.33722681
0.74479014 -0.3277325 0.33493561
0.75762838 -0.32552183 0.33405828
0.76123095 -0.32420152 0.3362802
0.77382946 -0.31303781 0.33220077
0.77800947 -0.30770615 0.3376244
0.7825681 -0.3014318 0.33332682
0.62416184 -0.35275698 0.34368801
0.63007212 -0.35010755 0.34803218
0.63551539 -0.34790203 0.3431578
0.64496899 -0.34704936 0.34049538
0.6566053 -0.34374297 0.34499642
0.66533488 -0.34168357 0.34792787
0.67409182 -0.34125677 0.34616923
0.67925185 -0.33987796 0.34429079
0.68545943 -0.33852267 0.34369859
0.69548923 -0.33721298 0.3464137
0.70459664 -0.33527088 0.34486863
0.71507013 -0.33273685 0.34469119
0.72492337 -0.33113673 0.34302816
0.73400927 -0.33062974 0.34453741
0.74427146 -0.32807153 0.34450045
0.75520474 -0.32622564 0.34444815
